# .PCD v0.7 - Point Cloud Data file format
VERSION 0.7
FIELDS x y z rgb
SIZE 4 4 4 4
TYPE F F F F
COUNT 1 1 1 1
WIDTH 199
HEIGHT 1
VIEWPOINT 0 0 0 1 0 0 0
POINTS 199
DATA ascii
0.33627239 -0.0031066283 -0.99221444 1.6595283e-39
0.34118706 -0.0033033632 -0.99100006 1.292178e-39
0.33572543 0.0047316654 -0.99299991 1.8439154e-39
0.34413984 0.0057159103 -0.99142104 1.660243e-39
0.3508018 0.0070828269 -0.99150014 1.5687761e-39
0.33870852 0.010465684 -0.99900007 2.3063299e-39
0.34492946 0.010423779 -0.99500006 1.9368355e-39
0.35446206 0.012524731 -0.99250019 2.0297542e-39
0.36377707 0.016599968 -0.99600011 8.301208e-40
0.33793345 -0.0073274584 -0.98620003 1.7513638e-39
0.34367433 -0.0019823583 -0.98566669 1.6595283e-39
0.34649202 0.0016916841 -0.98650008 1.3836603e-39
0.35395586 0.0062325187 -0.98429435 1.8449986e-39
0.35704535 0.011468445 -0.98710012 2.4907295e-39
0.36210471 0.014071398 -0.98500013 9.327463e-41
0.33718112 -0.010897412 -0.9740001 1.751724e-39
0.33797631 -0.007724951 -0.9731667 1.659171e-39
0.34543109 -0.0027804635 -0.9738183 1.4751357e-39
0.35140947 -0.0018495546 -0.97100013 1.5666195e-39
0.34964275 0.00093235041 -0.97900009 1.3840008e-39
0.35502717 0.0031858194 -0.97514302 1.1989061e-39
0.35896659 0.011188541 -0.97900009 2.7946235e-40
0.33620894 -0.015992031 -0.96506679 1.4758574e-39
0.34337088 -0.011006538 -0.96316689 1.3825841e-39
0.35346851 -0.010072888 -0.96150011 4.6242009e-40
0.40594277 -0.010057178 -0.9600001 1.2900354e-39
0.41279992 -0.010514323 -0.9600001 6.4536941e-40
0.34527937 -0.006746592 -0.96622235 1.2903885e-39
0.35463318 -0.004342542 -0.96445459 2.398185e-39
0.3615599 -0.0046000318 -0.96600008 2.1944377e-38
0.40706849 -0.0049930508 -0.96266675 1.1074252e-39
0.41283613 -0.0076495609 -0.96400011 6.4502049e-40
0.35691217 0.0045883497 -0.96340019 7.8416942e-39
0.35570276 0.012921874 -0.96177793 6.9172212e-39
0.37237543 0.011885683 -0.96000016 6.4537782e-40
0.38674277 0.023771396 -0.9600001 3.6806786e-40
0.38368422 0.038461395 -0.96150011 4.5991176e-40
0.336882 -0.023281071 -0.95018184 1.3836603e-39
0.34510195 -0.022619082 -0.95000005 6.4501768e-40
0.35479566 -0.02342703 -0.95086968 4.6133688e-40
0.3899523 -0.020809557 -0.95000011 3.7058039e-40
0.40533328 -0.020809559 -0.95000011 8.2976067e-40
0.33819851 -0.017266352 -0.9543637 1.0155995e-39
0.34529817 -0.015486039 -0.95238453 9.2160037e-40
0.3549414 -0.015801722 -0.95118523 1.6602486e-39
0.36217409 -0.015790297 -0.95044464 7.3864264e-40
0.39583325 -0.018547654 -0.95000011 3.6949998e-40
0.40565056 -0.015850557 -0.95266682 7.3756784e-40
0.41193524 -0.014833793 -0.95388889 8.2940334e-40
0.35684848 -0.0090581262 -0.95100009 9.4039697e-39
0.36371422 -0.0099524129 -0.95000011 7.0064923e-45
0.37536761 -0.0051058154 -0.95021462 1.8403253e-40
0.38418892 -0.0030773671 -0.95066673 1.8439126e-40
0.39536875 -0.0022211601 -0.95036381 8.2976627e-40
0.35903904 0.0060013975 -0.95490009 1.1247519e-38
0.364355 0.0067054923 -0.95120013 1.1967607e-39
0.37592351 0.0052213068 -0.95315623 4.6026068e-40
0.38516954 0.005578646 -0.95116132 2.7658829e-40
0.39524555 0.0053059799 -0.95154291 1.1059916e-39
0.34906659 0.01903997 -0.95200008 1.0818024e-42
0.35725993 0.015624168 -0.95495468 1.3091447e-38
0.36444741 0.014940667 -0.95319223 6.4502889e-40
0.37610403 0.015117485 -0.95424247 6.4466035e-40
0.38510504 0.015188465 -0.9504447 4.6097955e-40
0.39390039 0.014558407 -0.95000011 3.6807066e-40
0.34906659 0.025386637 -0.95200008 9.3348198e-40
0.35483614 0.025223203 -0.95080012 1.0235182e-38
0.36585915 0.024437496 -0.95040005 8.2905722e-40
0.37468532 0.025035856 -0.95110726 6.4502469e-40
0.38522092 0.025114939 -0.95424002 3.6878672e-40
0.39372027 0.025188398 -0.95192868 1.1056287e-39
0.35149992 0.032119017 -0.95000011 1.2546545e-38
0.36733323 0.035738062 -0.95000017 5.5209758e-40
0.37472171 0.035425719 -0.95175987 9.2159897e-40
0.38213158 0.034701392 -0.9525001 3.6842379e-40
0.39384884 0.034101557 -0.95066679 8.2868167e-40
0.35490119 0.046284601 -0.95028573 7.2877848e-39
0.36670691 0.043915723 -0.95000005 9.2087309e-40
0.37247625 0.042332627 -0.95157158 2.7622535e-40
0.38452375 0.046142828 -0.95000017 2.7730716e-40
0.35492548 0.054618768 -0.95053333 1.2725553e-38
0.37867972 0.058245111 -0.95260012 7.3650285e-40
0.38619211 0.056691702 -0.95243746 1.8439126e-40
0.39309812 0.056558762 -0.95363635 9.219563e-41
0.35575292 0.06506829 -0.95100003 1.1250057e-38
0.36683062 0.067656055 -0.95000011 2.7623236e-40
0.37553868 0.065603681 -0.95154554 1.8439546e-40
0.38548529 0.065155409 -0.95064545 3.6842659e-40
0.39467856 0.064702675 -0.95405257 7.3756784e-40
0.40102848 0.06744568 -0.95700008 7.9291913e-39
0.3563199 0.071626633 -0.95200008 1.0881276e-38
0.36723751 0.073396429 -0.95142871 8.2939913e-40
0.37505248 0.075099155 -0.95082778 3.6842799e-40
0.38597137 0.076422192 -0.95000005 1.8439406e-40
0.39514747 0.073555321 -0.95355552 1.2907416e-39
0.3676025 0.087135844 -0.95200008 1.0152253e-39
0.37468466 0.084907472 -0.95219988 5.5389265e-40
0.38544565 0.084578574 -0.95213354 5.5425558e-40
0.39390704 0.085833877 -0.95247614 8.3084107e-40
0.36673835 0.095079467 -0.95080006 1.1067049e-39
0.3751761 0.095317893 -0.95193088 1.1074252e-39
0.38514802 0.09456934 -0.95196879 1.0148708e-39
0.3941642 0.093800507 -0.95143485 1.5684061e-39
0.34906659 0.10970664 -0.95200008 9.6527043e-41
0.35096371 0.10732855 -0.95100009 1.4847825e-38
0.36739677 0.1037422 -0.9513334 8.2976067e-40
0.37465915 0.10517447 -0.95127285 8.3048514e-40
0.38361895 0.10042854 -0.95000011 1.1996264e-39
0.34877896 0.11238473 -0.95320004 1.6634828e-39
0.35014278 0.11219046 -0.95000011 1.4756708e-38
0.3735466 0.11151997 -0.95200008 1.2932598e-39
0.34145248 -0.032117747 -0.94200003 1.2911102e-39
0.37769705 -0.031400036 -0.94200009 2.4889667e-39
0.40102276 -0.033194318 -0.94200009 5.5317378e-40
0.33641037 -0.025253363 -0.94700003 1.3847323e-39
0.34373999 -0.027795175 -0.94460028 7.3793078e-40
0.35639566 -0.026953246 -0.94350022 3.6878252e-40
0.3615979 -0.022992278 -0.94414294 5.5317378e-40
0.37523225 -0.024707975 -0.94226658 8.3084107e-40
0.38421801 -0.024506053 -0.94359106 8.3048094e-40
0.39428973 -0.02346099 -0.94450015 6.4573235e-40
0.40536109 -0.024117051 -0.94431847 8.2976067e-40
0.41307208 -0.021855274 -0.94311124 1.9339586e-39
0.36564761 -0.015426185 -0.94370842 6.4537221e-40
0.37532082 -0.015276577 -0.94370013 4.6098235e-40
0.38518283 -0.015373604 -0.94385016 6.4501068e-40
0.39479247 -0.014870699 -0.94620031 8.290432e-40
0.40856275 -0.018940035 -0.94700009 1.0141519e-39
0.41217041 -0.018940035 -0.94700015 8.2976627e-40
0.35721231 -0.0035886029 -0.94200015 4.7945455e-39
0.36511016 -0.0051233447 -0.94434798 9.2197031e-41
0.37789804 -0.0099209845 -0.94700015 9.2558566e-41
0.38519913 -0.0069668591 -0.94408345 9.2557165e-41
0.39243901 -0.0076907221 -0.94388908 4.6098796e-40
0.35667104 0.0028994395 -0.94333345 4.5175943e-39
0.36398566 0.0039063175 -0.94600034 7.3721191e-40
0.38838848 0.017081872 -0.94400018 1.1985446e-39
0.39641461 0.015558812 -0.94507158 4.0573266e-39
0.35870346 0.027337523 -0.94328582 1.847556e-40
0.36199278 0.027014256 -0.94550014 1.1067175e-39
0.3733885 0.027959017 -0.94700015 4.6134249e-40
0.38781899 0.028860919 -0.94700009 4.6134109e-40
0.3959361 0.020743776 -0.94700015 2.2130567e-39
0.34972945 0.038659021 -0.94400012 1.6231174e-38
0.35498855 0.035228197 -0.94488913 7.7448197e-39
0.3626895 0.034827195 -0.94575018 1.8428294e-39
0.37338847 0.031566635 -0.94700009 3.6806365e-40
0.38511097 0.035378974 -0.94621766 9.2159897e-40
0.39142656 0.035174254 -0.94700009 3.6913705e-40
0.34972945 0.040457115 -0.94400012 1.715096e-38
0.3551687 0.044743378 -0.94688499 9.3135915e-39
0.36426976 0.04713108 -0.94566691 8.2939773e-40
0.38647723 0.044940408 -0.9453752 7.3756924e-40
0.39190269 0.045007825 -0.94525027 3.5873241e-43
0.35812706 0.05510743 -0.94600022 9.2564171e-41
0.36469072 0.054777246 -0.94400012 2.7622956e-40
0.37051994 0.055622827 -0.94200009 3.6806365e-40
0.38748944 0.051245682 -0.94400012 9.2561369e-41
0.34883043 0.065630451 -0.94400018 1.9918587e-38
0.358484 0.064848781 -0.94575018 1.8439266e-40
0.3638019 0.062898815 -0.94500023 9.2123743e-40
0.37970182 0.069446638 -0.94700009 2.7658689e-40
0.38150564 0.069446638 -0.94700009 1.8439126e-40
0.3578209 0.071024738 -0.94400012 2.7658689e-40
0.37970182 0.0742568 -0.94700015 1.8439406e-40
0.38330945 0.073455103 -0.94700009 1.8439406e-40
0.35607094 0.086387515 -0.94218194 2.7696104e-40
0.36146641 0.086904548 -0.94460011 1.1067021e-39
0.3489885 0.099582829 -0.94200009 1.8535702e-38
0.35520422 0.095771745 -0.94244432 5.1644182e-39
0.36166373 0.094699971 -0.94700015 1.1067021e-39
0.34903705 0.10281712 -0.94700009 1.328193e-38
0.35320863 0.1042574 -0.94370025 1.3553867e-38
0.37879992 0.10371902 -0.94700015 7.3864684e-40
0.38478532 0.10240716 -0.94700021 9.230395e-40
0.34850088 0.11579283 -0.94250005 2.0564313e-38
0.35280046 0.11393785 -0.94288254 1.4753491e-38
0.34493035 -0.034621213 -0.93425006 9.2232624e-40
0.35554329 -0.035227526 -0.93409091 4.6097815e-40
0.36462936 -0.035585817 -0.93341374 3.6878252e-40
0.38496438 -0.034892615 -0.93391174 7.3756224e-40
0.39602458 -0.034950256 -0.93557698 4.6097815e-40
0.40484309 -0.035045162 -0.93280619 3.6878392e-40
0.35771424 -0.029511461 -0.93900013 3.6878532e-40
0.36467358 -0.025535611 -0.93850005 4.6133968e-40
0.37202278 -0.029511463 -0.93900013 7.3756504e-40
0.38581711 -0.028883848 -0.93800014 2.2134056e-39
0.39551774 -0.028595179 -0.93830013 8.2976067e-40
0.40594271 -0.028395478 -0.9359287 6.4537642e-40
0.41266498 -0.026629483 -0.93461555 1.4729707e-39
0.38275421 -0.012520034 -0.93900013 4.6133968e-40
0.35413706 -0.0017886024 -0.93900013 5.0714939e-39
0.36844563 0.055445686 -0.93900013 2.7622816e-40
0.37291709 0.055445686 -0.93900013 5.5245491e-40
0.35599443 0.10573206 -0.93900019 3.684336e-40
0.36039707 0.10373712 -0.93900013 5.5317798e-40
0.35413706 0.11267997 -0.93900013 9.2225057e-41
0.4057124 -0.035685435 -0.92900002 2.7658829e-40
0.41318375 -0.033620991 -0.92900002 5.5209618e-40
