# .PCD v0.7 - Point Cloud Data file format
VERSION 0.7
FIELDS x y z rgb
SIZE 4 4 4 4
TYPE F F F F
COUNT 1 1 1 1
WIDTH 791
HEIGHT 1
VIEWPOINT 0 0 0 1 0 0 0
POINTS 791
DATA ascii
0.38651425 0.33613715 -0.91200012 5.1622266e-39
0.42428568 0.32999995 -0.9000001 4.5175859e-39
0.4328571 0.32999995 -0.9000001 4.4253902e-39
0.37628564 0.33342853 -0.9000001 5.6232047e-39
0.38690433 0.33475885 -0.90360016 5.5310105e-39
0.39398423 0.33459806 -0.90375012 5.2554984e-39
0.40510711 0.33674997 -0.89999986 6.1770974e-39
0.41612515 0.33658218 -0.90347844 5.8083135e-39
0.42349166 0.33529428 -0.90086681 5.7161248e-39
0.43422955 0.33482987 -0.90047622 5.716122e-39
0.40885711 0.34028569 -0.9000001 7.376351e-39
0.41519731 0.34172073 -0.90030777 7.5610968e-39
0.42488503 0.34225211 -0.90066677 7.6525806e-39
0.43463102 0.3430115 -0.90012491 7.6529407e-39
0.4427619 0.34561899 -0.90000004 7.6529449e-39
0.35975137 0.32913429 -0.89300013 5.0718288e-39
0.36519605 0.32917374 -0.89442861 5.1633042e-39
0.42676377 0.32926664 -0.89800012 4.4253846e-39
0.43018472 0.32926664 -0.89800012 4.5175859e-39
0.30972853 0.33009425 -0.89100003 5.807596e-39
0.31651708 0.33009425 -0.89100003 5.7154004e-39
0.3224571 0.33009425 -0.89100003 5.439168e-39
0.34575126 0.33555031 -0.89216012 6.9146624e-39
0.35476956 0.33505619 -0.89175791 6.7302726e-39
0.36497664 0.33441949 -0.89122254 6.6380741e-39
0.37500474 0.33536974 -0.89258635 6.729911e-39
0.38479599 0.33666509 -0.89437521 6.914654e-39
0.39552507 0.33718893 -0.898 6.3614816e-39
0.40367234 0.33952951 -0.89800012 7.2845127e-39
0.42627507 0.3324433 -0.89800024 5.3466193e-39
0.43697283 0.33520147 -0.89605272 6.1774575e-39
0.44509384 0.3350192 -0.89416689 6.3618502e-39
0.45558095 0.33532053 -0.89448279 6.4544045e-39
0.46180862 0.33508757 -0.89299989 6.6380727e-39
0.3462171 0.34027714 -0.89100009 8.4826958e-39
0.35506648 0.34245917 -0.89100015 8.5741782e-39
0.36545005 0.3438924 -0.89113367 8.3897897e-39
0.37526837 0.34482765 -0.89239395 8.2979528e-39
0.38471901 0.34493795 -0.89300001 8.2057558e-39
0.39545965 0.34502912 -0.89528608 7.9288144e-39
0.40509996 0.34539646 -0.89548749 7.8369747e-39
0.4145256 0.34621611 -0.89571446 7.7447804e-39
0.42421496 0.34646261 -0.89571464 7.7447818e-39
0.43464687 0.34659457 -0.89800018 7.7444189e-39
0.44615483 0.34545428 -0.89651459 7.652582e-39
0.45482981 0.34467238 -0.89433342 7.5603892e-39
0.46180862 0.34529331 -0.89299989 7.4681949e-39
0.37536761 0.35269549 -0.89135295 8.1135644e-39
0.3853226 0.35396796 -0.89286679 8.0213673e-39
0.39489406 0.35508254 -0.89376932 7.7451434e-39
0.40488163 0.35539612 -0.89269221 7.6525834e-39
0.41507953 0.35473341 -0.89238888 7.5607479e-39
0.42493644 0.35491285 -0.89335006 7.6522233e-39
0.43509835 0.35549131 -0.89468443 7.5603878e-39
0.44498551 0.35485327 -0.89389402 7.4681935e-39
0.45485401 0.35497749 -0.89270616 7.3763566e-39
0.46196929 0.35529292 -0.89311767 7.2838037e-39
0.38921139 0.36460286 -0.89100015 8.0217275e-39
0.39575467 0.364158 -0.89180017 7.7455091e-39
0.40530351 0.36469778 -0.89127052 7.8366145e-39
0.41496703 0.36518294 -0.89138734 7.7444217e-39
0.42463103 0.36518016 -0.89172238 7.6525834e-39
0.43483928 0.36477929 -0.89135325 7.6525848e-39
0.44397065 0.36249667 -0.89112496 7.5603878e-39
0.45483428 0.36149144 -0.89100003 7.4681935e-39
0.46162283 0.36149141 -0.89100009 7.3760021e-39
0.40523136 0.37367991 -0.89100015 7.8366159e-39
0.41440248 0.37397712 -0.89172012 7.7447804e-39
0.42287141 0.3753514 -0.89100003 7.744779e-39
0.39458564 0.38185713 -0.89100009 7.8384166e-39
0.42767999 0.38468572 -0.89100015 7.6529393e-39
0.43308404 0.38592133 -0.89100003 7.6525862e-39
0.42767993 0.39373708 -0.89100009 7.7451364e-39
0.43302095 0.39448589 -0.89099997 7.6533037e-39
0.23912853 0.32974568 -0.88100004 6.8220983e-39
0.24683237 0.32832175 -0.88127279 6.5451568e-39
0.25507042 0.32722855 -0.88100004 6.5455156e-39
0.2647627 0.32695109 -0.88235748 6.2692846e-39
0.27063185 0.32778141 -0.88250005 6.5455114e-39
0.28947136 0.32890666 -0.88100004 6.5455114e-39
0.29450566 0.32974568 -0.88100004 6.8210221e-39
0.30432457 0.32902637 -0.88433331 6.1763743e-39
0.31305331 0.32992953 -0.88600004 6.2689273e-39
0.19130282 0.33142379 -0.88100004 7.3756448e-39
0.23592493 0.33279681 -0.88100004 7.4671103e-39
0.24512921 0.33232969 -0.88169247 7.2830792e-39
0.25926566 0.33981428 -0.88100004 9.220251e-39
0.2652294 0.33543611 -0.88120717 8.0206457e-39
0.27527335 0.33550653 -0.88255584 8.0202841e-39
0.28455681 0.33509567 -0.88291925 7.8362502e-39
0.29449952 0.33573192 -0.88350028 7.8362544e-39
0.30478653 0.33464056 -0.88226348 7.7440602e-39
0.3154408 0.33511853 -0.88490337 7.5600248e-39
0.32491466 0.33455095 -0.88589489 7.2834407e-39
0.33472133 0.3347232 -0.88528013 7.2837995e-39
0.34082282 0.33913144 -0.88800007 8.5741782e-39
0.2634609 0.34149235 -0.88100004 9.4957589e-39
0.28713614 0.34530017 -0.88130027 9.0344374e-39
0.2954317 0.34538564 -0.88302529 8.9426005e-39
0.30499882 0.34474647 -0.88210571 8.8504077e-39
0.31517223 0.34483218 -0.88400024 8.7585736e-39
0.32590917 0.34474924 -0.88577765 8.6663766e-39
0.33502507 0.34483612 -0.88650006 8.574181e-39
0.34464917 0.34533176 -0.88702726 8.5738222e-39
0.35466322 0.34705397 -0.88750011 8.3897911e-39
0.36337519 0.34815234 -0.88800007 8.4812693e-39
0.28863233 0.35323903 -0.88100004 8.6660095e-39
0.29248917 0.35257149 -0.88166672 8.7582135e-39
0.30960852 0.35156092 -0.88100004 8.6663738e-39
0.31568235 0.35576242 -0.88322878 8.4823441e-39
0.32528725 0.3556633 -0.88400018 8.4819825e-39
0.33537653 0.35548511 -0.88339543 8.2979528e-39
0.34487027 0.35518458 -0.88297802 8.2975941e-39
0.35485724 0.35411447 -0.88568765 8.2975955e-39
0.3646172 0.35472429 -0.88651419 8.1135629e-39
0.37489414 0.35702294 -0.88742876 8.1128427e-39
0.38373712 0.35838044 -0.88750011 8.1132042e-39
0.31795651 0.36399448 -0.88121444 8.5738208e-39
0.32555047 0.3649857 -0.8810004 8.4819839e-39
0.33561897 0.36498576 -0.8810004 8.3894338e-39
0.34580004 0.36555001 -0.88311154 8.3894338e-39
0.35541984 0.36564267 -0.88548398 8.2057586e-39
0.36471483 0.36492211 -0.88531715 8.2053998e-39
0.37496069 0.36524466 -0.88590246 8.1135587e-39
0.38470659 0.36574399 -0.88778603 8.1135629e-39
0.39445221 0.36823916 -0.88783354 7.8369789e-39
0.4255752 0.36915761 -0.88750005 7.7444161e-39
0.43575427 0.36830857 -0.88800007 7.5607479e-39
0.44527844 0.36628208 -0.88729042 7.4685523e-39
0.45539877 0.36620465 -0.88654548 7.4681921e-39
0.46091431 0.36450285 -0.88800019 7.4678334e-39
0.31967708 0.37002 -0.88100004 8.5741782e-39
0.32694891 0.37180999 -0.88100016 8.3901484e-39
0.33561897 0.37253714 -0.88100028 8.3897925e-39
0.3455649 0.37438327 -0.88140035 8.2979542e-39
0.35541135 0.37541291 -0.88400042 8.2975955e-39
0.36516958 0.37519479 -0.8846001 8.2057558e-39
0.37548938 0.37548947 -0.88400042 8.1135615e-39
0.38579643 0.37482116 -0.88639992 8.1135644e-39
0.39479122 0.37514627 -0.88751751 7.8380579e-39
0.40400264 0.37813377 -0.88800025 7.8366173e-39
0.41492856 0.37814006 -0.88800025 7.744779e-39
0.4251439 0.37525618 -0.8878575 7.7444203e-39
0.43532509 0.37534484 -0.88738489 7.6525848e-39
0.44500992 0.37484843 -0.88504767 7.468911e-39
0.45382494 0.37466198 -0.88278973 7.4681935e-39
0.33981425 0.38512284 -0.88100004 8.4819853e-39
0.34552783 0.38487828 -0.88136029 8.2979528e-39
0.35521677 0.38551888 -0.88383371 8.2975913e-39
0.36500391 0.3855159 -0.88400042 8.2057572e-39
0.37495577 0.38568655 -0.88509107 8.1135629e-39
0.38523829 0.38560492 -0.88512212 8.1139203e-39
0.39533934 0.38492489 -0.88440931 7.9302577e-39
0.40475211 0.38522482 -0.88509685 7.8373334e-39
0.41483355 0.38543001 -0.88772249 7.8369747e-39
0.42362356 0.38543206 -0.8878336 7.7447776e-39
0.4376266 0.38539505 -0.8868801 7.6525848e-39
0.44462439 0.38491565 -0.8827678 7.5607465e-39
0.45339078 0.38329226 -0.8810004 7.4685523e-39
0.33981428 0.39183521 -0.88100004 8.3897897e-39
0.34520808 0.39159548 -0.88100028 8.2979528e-39
0.35575613 0.39183521 -0.88100034 8.2975941e-39
0.36630392 0.3935084 -0.8835001 8.2057572e-39
0.37599295 0.39397159 -0.88496292 8.2057572e-39
0.3855924 0.39401144 -0.88400024 8.2057558e-39
0.39535275 0.39389914 -0.88409108 8.1139287e-39
0.40499702 0.39434561 -0.88509083 7.837332e-39
0.4147262 0.39446288 -0.8865 7.8373348e-39
0.42446929 0.3951562 -0.88783371 7.7451378e-39
0.43663681 0.39480284 -0.8866365 7.6529421e-39
0.44255516 0.39353099 -0.88250005 7.6525806e-39
0.068333298 0.32916668 -0.87500006 7.7429882e-39
0.073081866 0.32969907 -0.87200004 7.7433413e-39
0.11511394 0.32929623 -0.87166679 7.7433357e-39
0.12014282 0.32728574 -0.87000006 7.55895e-39
0.1352914 0.32888716 -0.87150013 7.5593074e-39
0.14391902 0.32849145 -0.87100005 7.558943e-39
0.15397774 0.32871652 -0.87233341 7.6500625e-39
0.17566735 0.32921833 -0.87625009 7.2827233e-39
0.18166664 0.32916665 -0.87500006 7.2834393e-39
0.19916664 0.32833332 -0.87500006 6.9146512e-39
0.2048092 0.32817435 -0.87338465 7.0061434e-39
0.21463853 0.32860237 -0.87350005 7.3760007e-39
0.22192091 0.32954282 -0.87600005 7.3752847e-39
0.25276363 0.32735306 -0.87833345 6.3611271e-39
0.29343367 0.32604 -0.87779999 6.083457e-39
0.068176627 0.33090669 -0.87300009 8.0192121e-39
0.072085679 0.33060002 -0.87000006 8.204318e-39
0.095137119 0.33602098 -0.87340009 8.9411628e-39
0.10480579 0.3350755 -0.87176478 8.8493245e-39
0.11406175 0.33474419 -0.87112147 8.9415145e-39
0.13519382 0.33567694 -0.87156683 9.1259058e-39
0.14516659 0.33544254 -0.87274301 8.9415131e-39
0.15503167 0.33532843 -0.87275678 8.9418733e-39
0.16476645 0.33535296 -0.87376213 8.8496804e-39
0.1747997 0.3354452 -0.87400001 8.8493259e-39
0.18485256 0.33542538 -0.87538892 8.5734537e-39
0.19538909 0.33523864 -0.87739021 8.4808979e-39
0.2049419 0.3354727 -0.87558836 8.5734551e-39
0.21535619 0.335473 -0.87654305 8.4812623e-39
0.22502799 0.33504277 -0.87511116 8.4812651e-39
0.23538823 0.3367984 -0.87655556 8.758568e-39
0.24541205 0.33685452 -0.87766671 8.7574918e-39
0.25465161 0.33465603 -0.87893927 8.0206457e-39
0.26369995 0.33439204 -0.87900013 7.8362586e-39
0.27793139 0.33904284 -0.87900007 9.402843e-39
0.088657103 0.34551433 -0.87000006 1.0047509e-38
0.093628533 0.34258991 -0.86999995 1.0323736e-38
0.10550472 0.34109527 -0.87000006 1.0507048e-38
0.11276101 0.34235066 -0.87 1.02319e-38
0.13642824 0.34282359 -0.87061542 1.0231896e-38
0.14504379 0.34324726 -0.87121886 1.0047862e-38
0.15546386 0.34465018 -0.8705163 9.9556693e-39
0.16467851 0.34557581 -0.87199986 9.863475e-39
0.17444877 0.34557691 -0.8722499 9.8631191e-39
0.18473153 0.34525657 -0.87324399 9.8631163e-39
0.19462405 0.34520435 -0.87405008 9.6798041e-39
0.2053134 0.34552389 -0.87633359 9.5876084e-39
0.21535295 0.34537113 -0.87635148 9.4954128e-39
0.22507146 0.34510919 -0.87527788 9.4954114e-39
0.23517829 0.34526399 -0.87566686 9.4032172e-39
0.24551405 0.34572327 -0.87683374 9.4028584e-39
0.25514495 0.34523749 -0.87854826 9.3106656e-39
0.26511586 0.34532997 -0.87776214 9.1269904e-39
0.27494588 0.34487343 -0.87670755 9.0347962e-39
0.28214714 0.3454887 -0.87869239 8.9426005e-39
0.30471998 0.34908858 -0.87900007 8.8507693e-39
0.10191425 0.35214287 -0.87000006 1.0324799e-38
0.15599205 0.35499355 -0.87037051 9.6787251e-39
0.16463512 0.35515055 -0.8717646 9.4950527e-39
0.17484944 0.35488909 -0.87115014 9.4028598e-39
0.1854687 0.35346675 -0.8701601 9.4021396e-39
0.19498101 0.35462913 -0.87118191 9.3106628e-39
0.20466088 0.35511994 -0.8729769 9.3106628e-39
0.21475483 0.35514343 -0.87425643 9.2184672e-39
0.22502905 0.35504484 -0.87511116 9.1262715e-39
0.23529893 0.35545054 -0.87611139 9.034436e-39
0.24521993 0.35536885 -0.87515801 9.0340759e-39
0.25570732 0.35544118 -0.87720531 8.9422432e-39
0.26494551 0.35545108 -0.87579072 8.8504063e-39
0.27522406 0.3553226 -0.87608594 8.7582121e-39
0.28537989 0.35611331 -0.87853843 8.6663738e-39
0.29579008 0.35593125 -0.87773693 8.6660123e-39
0.30472192 0.35512879 -0.87797141 8.574181e-39
0.15673253 0.36380908 -0.87000012 9.6787279e-39
0.1652834 0.36314636 -0.87000012 9.4946967e-39
0.17350283 0.3622514 -0.87 9.6790782e-39
0.19528562 0.3637774 -0.87008345 9.3110173e-39
0.20569997 0.3638567 -0.87027282 9.3106614e-39
0.21576583 0.36525881 -0.8720715 9.1266331e-39
0.22475378 0.36518964 -0.87302274 9.1266331e-39
0.23482136 0.36473101 -0.87257141 9.1262715e-39
0.24425967 0.36371708 -0.87181264 8.9426005e-39
0.25545815 0.36444384 -0.87169051 8.8504077e-39
0.26550546 0.36537427 -0.8722499 8.8504063e-39
0.27575347 0.36553329 -0.8750264 8.6667339e-39
0.2850984 0.36510941 -0.87519598 8.6663766e-39
0.29496211 0.36520082 -0.87565726 8.6660165e-39
0.30504441 0.36486956 -0.87715411 8.5741768e-39
0.31300533 0.36556479 -0.87854552 8.5738208e-39
0.20666423 0.37426287 -0.87073678 9.2188259e-39
0.21462394 0.37522945 -0.87182844 9.1266331e-39
0.22387178 0.37351173 -0.87074083 9.1266317e-39
0.23332568 0.37169713 -0.87 8.9436725e-39
0.24939997 0.37534285 -0.87000006 8.8511224e-39
0.25538123 0.3747786 -0.87061131 8.8507665e-39
0.26575232 0.37537524 -0.87199986 8.7585722e-39
0.27570486 0.37516984 -0.87223679 8.6667339e-39
0.28557521 0.37523261 -0.87166667 8.6663738e-39
0.29573497 0.3750391 -0.87441182 8.6663752e-39
0.30520022 0.37440881 -0.87557149 8.5741796e-39
0.31521529 0.37505549 -0.87648743 8.4823427e-39
0.32421687 0.37552071 -0.87833327 8.4819839e-39
0.33477244 0.37745562 -0.87877774 8.3897897e-39
0.34071714 0.37755144 -0.87900007 8.390147e-39
0.20879996 0.38031426 -0.87000006 9.1273533e-39
0.21501426 0.38128096 -0.87 9.0355136e-39
0.25747347 0.38082054 -0.87040007 8.8507651e-39
0.26555219 0.38418499 -0.87090337 8.7585708e-39
0.2754721 0.3849946 -0.87122232 8.6667311e-39
0.28559387 0.38521725 -0.8717221 8.6663738e-39
0.29588911 0.38502088 -0.87224311 8.5745369e-39
0.30530989 0.38494495 -0.87436366 8.5745383e-39
0.31499994 0.38500002 -0.87500006 8.4823427e-39
0.32546014 0.3849552 -0.87680018 8.3897925e-39
0.33487093 0.38434312 -0.87789661 8.3901484e-39
0.34155422 0.38173714 -0.87900007 8.2979556e-39
0.44746074 0.38925052 -0.87820017 7.5607451e-39
0.45209762 0.38629389 -0.87546164 7.5603878e-39
0.29416662 0.39083332 -0.87500006 8.6670828e-39
0.30749997 0.39083332 -0.87500012 8.5745439e-39
0.315 0.39083335 -0.87500012 8.4819839e-39
0.32581016 0.39084998 -0.87557149 8.3897925e-39
0.33447802 0.39133713 -0.87800008 8.2979542e-39
0.34657711 0.39178288 -0.87900013 8.2983129e-39
0.44746721 0.39202318 -0.87766671 7.5607437e-39
0.45166662 0.39166665 -0.87500012 7.6525876e-39
0.00864424 0.32809764 -0.86450005 8.0195709e-39
0.013545668 0.32797047 -0.86200005 8.2035992e-39
0.022986621 0.32920191 -0.86200005 8.4801833e-39
0.045869891 0.32884192 -0.86228579 8.3883352e-39
0.053038262 0.32872638 -0.86266667 8.3879848e-39
0.061905991 0.32933336 -0.86666673 8.2954361e-39
0.077456385 0.32838216 -0.86525005 8.0195638e-39
0.083931386 0.32996574 -0.86400002 8.3883366e-39
0.11986662 0.32901335 -0.86800003 8.0188478e-39
0.12506455 0.32683167 -0.86600012 7.5589514e-39
0.14631996 0.32736 -0.86800003 7.6511331e-39
0.018881859 0.33084384 -0.86200005 8.9393635e-39
0.024696942 0.33563268 -0.86200011 9.8623932e-39
0.034941018 0.33681622 -0.86211139 1.0231526e-38
0.044523492 0.33562192 -0.86342859 9.6787166e-39
0.054423384 0.33559066 -0.86405426 9.5865252e-39
0.064758763 0.33550239 -0.86499995 9.4028556e-39
0.074539587 0.3351692 -0.86572957 9.3099425e-39
0.084285483 0.33561954 -0.86625785 9.4021354e-39
0.090106621 0.33149335 -0.86800003 8.2043166e-39
0.10415996 0.33893335 -0.86800003 1.0232604e-38
0.1187644 0.33645338 -0.86800003 9.4943296e-39
0.12530796 0.33525851 -0.86729407 9.3102985e-39
0.13143997 0.3348 -0.86800003 9.1255443e-39
0.024305128 0.34447658 -0.86199993 1.0415929e-38
0.033111706 0.34261081 -0.86200011 1.0508479e-38
0.044550434 0.34223077 -0.86225021 1.0599955e-38
0.055643465 0.34315047 -0.86252654 1.0507764e-38
0.065396659 0.34375089 -0.86266673 1.0324448e-38
0.075219736 0.34525874 -0.86361307 1.0324093e-38
0.084216148 0.34506503 -0.86644429 1.0232256e-38
0.094961539 0.3464458 -0.86766672 1.0324089e-38
0.10459505 0.34593824 -0.86800003 1.0231892e-38
0.116063 0.34594798 -0.86787093 1.0323373e-38
0.12563677 0.34550187 -0.86788893 1.0231176e-38
0.13476376 0.34679019 -0.86766666 1.004715e-38
0.14515211 0.34788704 -0.86741185 9.9553133e-39
0.15127996 0.34885335 -0.86800003 9.8631177e-39
0.077159584 0.35382834 -0.86280024 9.8627548e-39
0.085566513 0.35377893 -0.86388898 9.9549518e-39
0.09540493 0.3549664 -0.86448777 1.0046067e-38
0.10547764 0.35529134 -0.86557156 9.8627548e-39
0.11544044 0.35514125 -0.8657999 9.679081e-39
0.12536378 0.35464758 -0.8659997 9.6790852e-39
0.13526091 0.35464758 -0.8659997 9.6787251e-39
0.1452532 0.35487473 -0.86655533 9.586535e-39
0.15127996 0.35596269 -0.86800003 9.4950583e-39
0.17806397 0.35893866 -0.86800003 9.6783663e-39
0.18517329 0.35815334 -0.86800003 9.4946953e-39
0.19095996 0.35959998 -0.86800003 9.310667e-39
0.20914662 0.35959998 -0.86800003 9.2188189e-39
0.21079996 0.35959998 -0.86800003 9.3110145e-39
0.097341456 0.36274374 -0.86200023 9.8634722e-39
0.10512721 0.36424962 -0.86237508 9.7712808e-39
0.1156278 0.36474383 -0.86429423 9.6794439e-39
0.12532242 0.36524734 -0.86571431 9.6790838e-39
0.13523106 0.36528724 -0.86580962 9.5868896e-39
0.14507508 0.3647683 -0.866162 9.5872497e-39
0.15408543 0.36713737 -0.86750007 9.4950569e-39
0.16591951 0.36776671 -0.86776477 9.4028584e-39
0.17571071 0.36609772 -0.86786211 9.5865322e-39
0.18517332 0.36538664 -0.86800003 9.4028584e-39
0.19550663 0.36765999 -0.86800003 9.3106628e-39
0.20385599 0.36533156 -0.86800009 9.3106628e-39
0.21079998 0.36290666 -0.86800003 9.3106614e-39
0.23890662 0.36869329 -0.86800003 8.9433152e-39
0.24551997 0.36683333 -0.86800003 8.942602e-39
0.099335201 0.37024954 -0.86200005 9.5890391e-39
0.10598923 0.37241 -0.86200023 9.5876056e-39
0.11494865 0.37440217 -0.86211103 9.5872483e-39
0.12453412 0.37421533 -0.86274987 9.5872483e-39
0.13530165 0.37403923 -0.86317241 9.5872455e-39
0.14499836 0.37470815 -0.86443895 9.5868896e-39
0.15473077 0.3744767 -0.86419064 9.4950513e-39
0.16470477 0.37480345 -0.86521953 9.4946925e-39
0.17496093 0.37468085 -0.86655527 9.4028556e-39
0.18460314 0.37497455 -0.86533332 9.3110187e-39
0.19451745 0.37487492 -0.86483711 9.2188273e-39
0.20243341 0.37606296 -0.86712509 9.2188301e-39
0.22581454 0.37700441 -0.86686951 8.9429607e-39
0.23505282 0.37575984 -0.86749995 8.9429607e-39
0.24424967 0.3751266 -0.86775762 8.8511238e-39
0.25130659 0.37943998 -0.86800003 8.8507665e-39
0.1149333 0.38092196 -0.86200017 9.6790838e-39
0.12067996 0.3809219 -0.86200005 9.6790768e-39
0.13874091 0.3809219 -0.86200005 9.4950555e-39
0.14459807 0.38121653 -0.86266679 9.4954128e-39
0.15351807 0.38092193 -0.86200005 9.4032144e-39
0.16516189 0.38180572 -0.86400014 9.4028584e-39
0.17464709 0.38224611 -0.86500001 9.4028528e-39
0.18485194 0.38262206 -0.86380017 9.3106642e-39
0.1952998 0.3820754 -0.86294758 9.1273463e-39
0.20548765 0.38291022 -0.86650008 9.1269932e-39
0.21506906 0.3840619 -0.86744452 9.0351535e-39
0.22453207 0.38259646 -0.86512005 8.9429607e-39
0.23526169 0.38286671 -0.86610532 8.8511224e-39
0.24504024 0.38320643 -0.86696291 8.8507651e-39
0.25491005 0.38339582 -0.86759996 8.7585694e-39
-0.16533719 0.32824284 -0.85100001 7.5585969e-39
-0.1240029 0.32824284 -0.85100001 8.0199282e-39
-0.11166386 0.32633746 -0.85166669 7.7429882e-39
-0.10434886 0.32885069 -0.85099995 8.2950801e-39
-0.095142744 0.32846847 -0.8525455 8.2036006e-39
-0.083810732 0.32862422 -0.8543334 8.2035992e-39
-0.074643433 0.32858482 -0.85188878 8.2957934e-39
-0.064449564 0.32877082 -0.85483348 8.2954347e-39
-0.054720476 0.32749617 -0.85611123 8.0192079e-39
-0.045978948 0.32783231 -0.85557139 8.2032376e-39
-0.034770668 0.32771513 -0.8551538 8.2039579e-39
-0.02511763 0.32865825 -0.85500002 8.3879862e-39
-0.013842903 0.32806134 -0.8549999 8.3872716e-39
-0.0053364034 0.3262828 -0.85360867 7.7429798e-39
0.0043818587 0.32687017 -0.85562503 8.3879862e-39
0.014523447 0.32686248 -0.85777789 8.2954347e-39
0.025766794 0.32742208 -0.85772735 8.387989e-39
0.03451477 0.327225 -0.85611111 8.4794658e-39
0.079355195 0.32396573 -0.85900003 7.5596661e-39
0.084636159 0.32339871 -0.85620004 7.8355313e-39
0.096202187 0.32358032 -0.85366672 7.9273584e-39
-0.103366 0.33198693 -0.85124993 8.5720286e-39
-0.095434427 0.33199736 -0.85118175 8.5723887e-39
-0.085140295 0.33286443 -0.8524667 9.0333598e-39
-0.074136652 0.33489603 -0.85142857 9.7709193e-39
-0.065066077 0.33509326 -0.85400003 9.6783621e-39
-0.055469286 0.33451986 -0.85400009 9.6783649e-39
-0.045660548 0.33497599 -0.85294753 9.8627548e-39
-0.034975868 0.33488694 -0.85582596 9.6783663e-39
-0.024460556 0.33511719 -0.8561334 9.9545847e-39
-0.014592745 0.3353062 -0.85548466 1.0047139e-38
-0.0046902844 0.33495304 -0.85650009 9.8631107e-39
0.0048993728 0.33474767 -0.85727793 9.862752e-39
0.014702603 0.33485603 -0.85755563 9.9545861e-39
0.023542918 0.3333284 -0.85900009 9.3095796e-39
0.033833291 0.33455861 -0.85862511 9.7694801e-39
-0.071841761 0.34218055 -0.85140002 1.0323734e-38
-0.065132879 0.34220666 -0.85233325 1.0231903e-38
-0.054493736 0.34222767 -0.85268414 1.02319e-38
-0.04519194 0.34472024 -0.85336375 1.0416287e-38
-0.034962855 0.34484872 -0.85463613 1.0416286e-38
-0.024260664 0.344616 -0.85404342 1.050776e-38
-0.014727053 0.34498239 -0.8554101 1.0599597e-38
-0.0048914743 0.34486279 -0.85604751 1.0507761e-38
0.0047974237 0.34506825 -0.85685372 1.041557e-38
0.014704612 0.34469873 -0.85766661 1.0415214e-38
0.0257171 0.34850907 -0.85877788 1.0231546e-38
0.034588173 0.34531549 -0.85831255 1.0231895e-38
0.044967052 0.34626698 -0.85848367 1.0231896e-38
0.054685932 0.34646603 -0.85818189 1.0324448e-38
0.06493742 0.3479093 -0.85873353 1.0324441e-38
0.071174242 0.3485086 -0.85900003 1.0324802e-38
-0.044324689 0.35165077 -0.85199994 1.0046071e-38
-0.03494205 0.35348365 -0.85221058 9.9545917e-39
-0.02469125 0.35501727 -0.85182053 9.9549546e-39
-0.014618501 0.35490847 -0.85276216 9.8631177e-39
-0.0048777768 0.35528362 -0.85366666 9.8631163e-39
0.0048229843 0.35506642 -0.85474336 9.9553105e-39
0.014682319 0.35484388 -0.85652381 9.8634736e-39
0.024463039 0.35470453 -0.85619038 9.9549532e-39
0.034883905 0.35516229 -0.8568722 9.9553133e-39
0.045455586 0.35493174 -0.85718185 9.9556651e-39
0.055422675 0.35481882 -0.85705012 9.9553105e-39
0.065332666 0.35523814 -0.85747612 9.8634694e-39
0.073821522 0.35638914 -0.85863638 9.863468e-39
0.08520548 0.3586486 -0.85860014 9.9549518e-39
0.090808533 0.35914382 -0.85900003 9.9553133e-39
-0.021892425 0.36407408 -0.85139996 9.9553119e-39
-0.014861877 0.36396652 -0.85114807 9.9553119e-39
-0.003979004 0.3632831 -0.8512727 9.9553105e-39
0.0051835044 0.36343467 -0.85279304 9.9553119e-39
0.014923066 0.36430568 -0.85305256 9.9556665e-39
0.024741104 0.36485532 -0.85273337 9.9556679e-39
0.035303105 0.36508158 -0.85426074 9.9556707e-39
0.045454975 0.36556375 -0.85576916 9.8634764e-39
0.055584181 0.36532831 -0.85694748 9.9553133e-39
0.065312132 0.36574814 -0.85722238 9.8638296e-39
0.075262643 0.3653073 -0.85782927 9.8634694e-39
0.084840901 0.36530006 -0.85720521 9.7716367e-39
0.09356799 0.36562195 -0.85857135 9.7712794e-39
0.10471614 0.36650667 -0.85900003 9.7709263e-39
0.11126091 0.36650667 -0.85900003 9.6794481e-39
0.026543051 0.37261641 -0.85099995 9.9556637e-39
0.036029302 0.37296638 -0.85099995 9.7712822e-39
0.045721974 0.37288475 -0.85218525 9.8634708e-39
0.055429604 0.3734045 -0.85383862 9.863475e-39
0.065144084 0.37456945 -0.85499984 9.7716367e-39
0.075021759 0.37510508 -0.85622233 9.6794439e-39
0.084807687 0.37510467 -0.85622239 9.587607e-39
0.094886623 0.3750495 -0.85740024 9.6794425e-39
0.10372936 0.37634605 -0.85867995 9.6790852e-39
0.12684077 0.3780745 -0.85833347 9.5872483e-39
0.13275298 0.37740368 -0.85866684 9.4954184e-39
0.15543804 0.3787781 -0.85900003 9.4028598e-39
0.10635234 0.38041428 -0.85900003 9.5872483e-39
0.12435043 0.38041428 -0.85900003 9.5876014e-39
0.13498569 0.38041431 -0.85900009 9.4946953e-39
0.15543804 0.38041428 -0.85900003 9.4028598e-39
-0.18373719 0.32904243 -0.84525007 8.0192093e-39
-0.17569597 0.32821214 -0.84820014 7.5596717e-39
-0.16523471 0.32916218 -0.84823084 7.927378e-39
-0.15482175 0.32846826 -0.84784216 7.927378e-39
-0.145381 0.32779506 -0.8471818 7.9273794e-39
-0.13533254 0.32830089 -0.84775007 8.1117651e-39
-0.12459356 0.32835355 -0.8490001 8.1117651e-39
-0.11481719 0.32828006 -0.8490001 8.2036034e-39
-0.10581511 0.32574648 -0.8490001 7.9270207e-39
-0.0048514744 0.32181144 -0.84900004 7.0993998e-39
-0.18192831 0.3317045 -0.84400004 8.2954459e-39
-0.17458928 0.33172694 -0.84611118 8.1117735e-39
-0.16418329 0.33394423 -0.84519362 9.3099467e-39
-0.15509576 0.3354854 -0.84504747 9.7702032e-39
-0.14535551 0.33522314 -0.84477782 9.6787279e-39
-0.13484953 0.33469021 -0.84560007 9.5868924e-39
-0.12507719 0.33488241 -0.84729791 9.6787251e-39
-0.11473942 0.33505878 -0.84746522 9.8627562e-39
-0.10540079 0.33604643 -0.84814316 1.0047506e-38
-0.095479377 0.33625752 -0.84837961 1.0231539e-38
-0.085061766 0.33717427 -0.8490001 1.0599597e-38
-0.077622913 0.3371743 -0.8490001 1.0691431e-38
-0.15280345 0.3432962 -0.84363651 1.0047153e-38
-0.14543958 0.34297097 -0.84312516 1.0047152e-38
-0.13428167 0.34372163 -0.84430796 1.0231181e-38
-0.12557994 0.34455895 -0.84588236 1.0323017e-38
-0.11543056 0.34446344 -0.84354544 1.0047152e-38
-0.10527212 0.34516633 -0.84465218 1.0047152e-38
-0.095027775 0.34492126 -0.84725648 1.013935e-38
-0.085327841 0.34457436 -0.84777296 1.0139703e-38
-0.075621665 0.34568051 -0.84805298 1.0140063e-38
-0.064502165 0.34705317 -0.8485558 1.0139349e-38
-0.055711832 0.34651539 -0.84870386 1.0324092e-38
-0.049322903 0.34768572 -0.84900004 1.0508119e-38
-0.12298291 0.35045999 -0.84400004 9.6776503e-39
-0.11427339 0.35256138 -0.84300017 9.7705662e-39
-0.10498692 0.35389054 -0.84306091 9.771285e-39
-0.094880454 0.35459468 -0.84428591 9.771285e-39
-0.085294291 0.35485619 -0.84490478 9.8631205e-39
-0.074950337 0.35518101 -0.84622443 9.8634778e-39
-0.064687006 0.35519373 -0.84658968 9.8631177e-39
-0.054729976 0.35494557 -0.84773707 9.9553091e-39
-0.045723453 0.35626698 -0.84900033 9.9553105e-39
-0.036039229 0.35865924 -0.8490001 9.9556735e-39
-0.029108617 0.35900575 -0.84900004 9.9556735e-39
-0.10356863 0.36128578 -0.84300005 9.771285e-39
-0.094737194 0.3604829 -0.84300005 9.8631219e-39
-0.08337941 0.36256132 -0.84316677 9.771641e-39
-0.074426331 0.36431551 -0.84424317 9.7712836e-39
-0.064439043 0.36515361 -0.84608108 9.8631191e-39
-0.054729819 0.36513168 -0.84660971 9.8631191e-39
-0.045395683 0.36533779 -0.84800017 9.8634764e-39
-0.035526864 0.36492169 -0.84772247 9.8638338e-39
-0.026310163 0.36548337 -0.84843785 9.8634792e-39
-0.014069187 0.36757657 -0.8490001 9.9553133e-39
-0.0058217575 0.36725315 -0.8490001 9.7716395e-39
0.0047065686 0.36784151 -0.84864706 9.9553091e-39
0.013419769 0.3686215 -0.84880012 9.7719941e-39
0.026278529 0.36951715 -0.84900004 9.9556665e-39
0.031534243 0.36951715 -0.84900004 9.7716424e-39
-0.071509577 0.37040985 -0.84366673 9.8631191e-39
-0.063163593 0.37130058 -0.8453638 9.7712808e-39
-0.054962028 0.37114006 -0.84392315 9.7716339e-39
-0.04474147 0.37185511 -0.8465001 9.863475e-39
-0.035503533 0.37197056 -0.84722227 9.8634764e-39
-0.025040181 0.37241709 -0.84823817 9.8634778e-39
-0.014540781 0.37236035 -0.84811115 9.7712794e-39
-0.0048438516 0.37216479 -0.84766674 9.863475e-39
0.0048399582 0.37187338 -0.84700006 9.9556693e-39
0.014545355 0.37245873 -0.84833336 9.7719969e-39
0.024054959 0.37265033 -0.84900004 9.8638282e-39
0.031534243 0.37113428 -0.84900004 9.863838e-39
-0.29211321 0.32706109 -0.83176476 7.3742127e-39
-0.28443441 0.32636544 -0.83074999 7.2827387e-39
-0.27508575 0.32646674 -0.83000004 7.5589612e-39
-0.26579377 0.32547677 -0.83162165 7.4664055e-39
-0.25464192 0.32661778 -0.83331031 7.6507939e-39
-0.24452701 0.32703048 -0.83361536 7.7429896e-39
-0.23450623 0.32591203 -0.83234489 7.8348265e-39
-0.22512275 0.32592991 -0.83418751 7.6511541e-39
-0.21501687 0.32650563 -0.83616674 7.7426336e-39
-0.20504628 0.32710752 -0.83840007 7.8344691e-39
-0.19477531 0.32593125 -0.83848482 7.6507953e-39
-0.18820006 0.32700005 -0.84000009 7.9270179e-39
-0.28334987 0.33221567 -0.83000004 9.3106712e-39
-0.27455026 0.33472839 -0.82999998 9.3110299e-39
-0.26494908 0.33476973 -0.83075035 9.402864e-39
-0.25479594 0.33471382 -0.83085734 9.4028654e-39
-0.24467742 0.33494571 -0.83142877 9.4032242e-39
-0.2345448 0.33517724 -0.83200032 9.5868938e-39
-0.22490124 0.33518609 -0.83458346 9.5868924e-39
-0.21504498 0.3353093 -0.83628577 9.6790866e-39
-0.20529899 0.33500445 -0.8355239 9.6790908e-39
-0.19520691 0.33548945 -0.83730584 9.7712822e-39
-0.18519659 0.33534724 -0.83825552 9.679088e-39
-0.17470624 0.33591112 -0.83929747 1.0047506e-38
-0.16633739 0.33742908 -0.83947384 9.9560378e-39
-0.14080006 0.33520001 -0.84000009 1.0324097e-38
-0.13840005 0.33520001 -0.84000003 1.0416294e-38
-0.27271432 0.34069526 -0.8300001 9.1266471e-39
-0.26480958 0.3411696 -0.83000004 9.3106768e-39
-0.25392529 0.34373564 -0.83000004 9.4021494e-39
-0.24461012 0.34465492 -0.83040011 9.4021508e-39
-0.23451042 0.34516138 -0.83084202 9.3106768e-39
-0.22456193 0.34477904 -0.83223283 9.3110341e-39
-0.21505842 0.34541437 -0.83368194 9.4943464e-39
-0.20526382 0.34566665 -0.83455819 9.4947051e-39
-0.19534647 0.34531915 -0.8357951 9.6787349e-39
-0.18485574 0.34509325 -0.83520001 9.7705718e-39
-0.17541116 0.3452383 -0.83719039 9.7709277e-39
-0.16516306 0.3450318 -0.83779609 9.8631219e-39
-0.15594488 0.34623444 -0.84000009 9.8631191e-39
-0.14367411 0.34681487 -0.84000009 9.8631191e-39
-0.13502991 0.34744453 -0.83947384 9.6787293e-39
-0.12700005 0.34820002 -0.84000009 9.7702032e-39
-0.24404642 0.35165656 -0.83000004 9.2181211e-39
-0.23479129 0.35258266 -0.83007151 9.1266443e-39
-0.22443792 0.35422149 -0.83064711 9.3106698e-39
-0.21504536 0.35500428 -0.83075017 9.310674e-39
-0.20535713 0.35515669 -0.83212781 9.4028668e-39
-0.19510278 0.35497674 -0.83368194 9.4947037e-39
-0.18509193 0.35483196 -0.83191872 9.4028696e-39
-0.17535388 0.35522285 -0.8331601 9.4950625e-39
-0.16490488 0.35511106 -0.83527637 9.5868938e-39
-0.15514426 0.35510749 -0.83708709 9.6787321e-39
-0.14504883 0.3553499 -0.83897781 9.770569e-39
-0.13459352 0.35543355 -0.83817399 9.6790908e-39
-0.1246931 0.35530233 -0.83863401 9.7709263e-39
-0.11594079 0.35611856 -0.84000009 9.7709249e-39
-0.10560004 0.35679996 -0.84000009 9.7712878e-39
-0.21342862 0.36203817 -0.82999998 9.2191958e-39
-0.2045072 0.36289048 -0.83149999 9.3113859e-39
-0.19493718 0.36270964 -0.83130437 9.3110327e-39
-0.18497147 0.36282855 -0.82999998 9.402864e-39
-0.1747174 0.36316061 -0.83191997 9.4032242e-39
-0.16464454 0.36335701 -0.83330768 9.4950597e-39
-0.15454309 0.36338061 -0.8345623 9.5872553e-39
-0.14473154 0.36342189 -0.83499998 9.6787321e-39
-0.13516903 0.36336324 -0.8348667 9.5872497e-39
-0.12492074 0.3638939 -0.83638889 9.6794467e-39
-0.11501719 0.36421844 -0.8386665 9.679088e-39
-0.10500216 0.36529309 -0.83989203 9.679088e-39
-0.094400056 0.36479995 -0.84000009 9.7712864e-39
-0.085493393 0.36511999 -0.84000015 9.771285e-39
-0.076480053 0.36752 -0.84000009 9.7716438e-39
-0.3147175 0.31862673 -0.82066673 6.3611439e-39
-0.27442291 0.31937149 -0.82800007 6.8210431e-39
-0.37197721 0.32253721 -0.824 6.1767541e-39
-0.36469561 0.32368225 -0.8232308 6.4536955e-39
-0.35580859 0.32606009 -0.82199991 7.2827359e-39
-0.34513366 0.32595906 -0.82273692 7.283096e-39
-0.3357994 0.32759458 -0.82459283 7.6522359e-39
-0.32422185 0.32523945 -0.82250023 7.4671272e-39
-0.31489262 0.32510158 -0.82286513 7.4674859e-39
-0.30556053 0.32677266 -0.82478589 7.743714e-39
-0.29726502 0.32638997 -0.8264001 7.5589641e-39
-0.27442291 0.32094863 -0.82800007 7.0057931e-39
-0.35385147 0.33114862 -0.82199997 8.8507777e-39
-0.34345067 0.33416817 -0.82199991 8.7582247e-39
-0.33482346 0.33478516 -0.8215 8.8507791e-39
-0.32498491 0.33512145 -0.82156521 8.9426146e-39
-0.31516021 0.33505738 -0.82302576 9.1266429e-39
-0.3054367 0.33527502 -0.82444912 9.0344487e-39
-0.2952264 0.33498022 -0.8271063 9.1266429e-39
-0.28549445 0.33561447 -0.8268823 9.2184798e-39
-0.27823436 0.3379029 -0.82800007 9.3103167e-39
-0.34132576 0.34210861 -0.82200003 8.9426132e-39
-0.33574986 0.34395397 -0.82068747 8.666385e-39
-0.32385647 0.34315801 -0.82076925 8.7578688e-39
-0.31466416 0.34476033 -0.82060462 8.7582219e-39
-0.30509728 0.34509778 -0.82209104 8.8500602e-39
-0.29524982 0.34514162 -0.82337028 8.9422544e-39
-0.28499609 0.34510577 -0.8238464 9.0340885e-39
-0.27546179 0.34539101 -0.82541668 9.1262828e-39
-0.26522058 0.34536299 -0.82675689 9.1259254e-39
-0.2567589 0.34665605 -0.82800007 9.1259254e-39
-0.2499772 0.34854862 -0.82800007 9.1259296e-39
-0.31125292 0.35273021 -0.82000011 8.7578646e-39
-0.30465329 0.35464939 -0.82022208 8.7582261e-39
-0.29482681 0.35504583 -0.82114273 8.8500602e-39
-0.28496006 0.35541716 -0.82200032 8.8504189e-39
-0.27505252 0.35498032 -0.82313645 8.9426146e-39
-0.26514524 0.3539423 -0.82445461 9.0344487e-39
-0.25541118 0.35487837 -0.82582974 9.0344515e-39
-0.24572788 0.35560375 -0.8263244 9.1266443e-39
-0.23525605 0.3572107 -0.82615399 9.1266471e-39
-0.22586587 0.35830814 -0.82666677 9.3106726e-39
-0.21764576 0.35880005 -0.82800007 9.2191944e-39
-0.2723124 0.36020577 -0.82400006 8.9426132e-39
-0.26524958 0.36020577 -0.82400006 8.9426132e-39
-0.25539815 0.36070535 -0.82514292 9.034813e-39
-0.24504641 0.36049721 -0.82466674 9.0348116e-39
-0.23552291 0.3603515 -0.82433337 9.0355277e-39
-0.22436936 0.36090478 -0.82600009 9.2191944e-39
-0.21764576 0.36116576 -0.82800007 9.2191958e-39
-0.48508036 0.31951785 -0.81233329 4.7956175e-39
-0.47676358 0.31913278 -0.81266659 4.7048582e-39
-0.41544306 0.31887063 -0.81407136 5.5321105e-39
-0.40420136 0.31808195 -0.81459999 5.4402722e-39
-0.39704403 0.31667832 -0.81140006 5.6246607e-39
-0.49258512 0.32534802 -0.81323063 6.178189e-39
-0.48699039 0.32523128 -0.81222206 6.4547731e-39
-0.47443828 0.32423535 -0.81181812 6.3625775e-39
-0.46729052 0.32362765 -0.81100005 6.2689427e-39
-0.45420069 0.32257074 -0.81099993 6.1771072e-39
-0.44834337 0.32242167 -0.8118571 5.9934404e-39
-0.43021622 0.32826194 -0.81099999 8.4823511e-39
-0.42447317 0.32539085 -0.81163669 7.4678432e-39
-0.41421562 0.32473183 -0.81290603 7.1912591e-39
-0.40540293 0.3259401 -0.81500012 7.4678446e-39
-0.39572126 0.32605967 -0.81467581 7.6522331e-39
-0.38451755 0.32622212 -0.81541461 7.6518771e-39
-0.37429565 0.32556793 -0.81760526 7.4678432e-39
-0.36502412 0.3266789 -0.81876463 7.6522359e-39
-0.35429212 0.32591754 -0.81999993 7.4674859e-39
-0.3471334 0.32604766 -0.81999999 7.9280983e-39
-0.49269721 0.33116859 -0.81149995 7.8369957e-39
-0.48509818 0.33359563 -0.81119996 7.7451532e-39
-0.47618577 0.33062002 -0.8129999 8.0221002e-39
-0.43137479 0.33405483 -0.81099999 8.0213827e-39
-0.42480958 0.33323947 -0.81099993 8.2054139e-39
-0.41567823 0.33426249 -0.81106693 8.1135798e-39
-0.40357393 0.33459365 -0.81182933 8.3898051e-39
-0.39478141 0.3352766 -0.81353313 8.4816406e-39
-0.38499886 0.33544073 -0.81473905 8.4820022e-39
-0.37546524 0.33512935 -0.81671435 8.5741964e-39
-0.36483008 0.33458188 -0.81671113 8.6660319e-39
-0.35480052 0.33432627 -0.81802326 8.6663892e-39
-0.34611702 0.33547592 -0.81936347 8.7585862e-39
-0.49046198 0.34370956 -0.81099999 7.2841834e-39
-0.40299407 0.3433373 -0.81139994 8.0213813e-39
-0.39574438 0.34248307 -0.8112666 8.0213785e-39
-0.38389769 0.34458494 -0.81238115 8.2054125e-39
-0.37483186 0.34523764 -0.81393117 8.2976095e-39
-0.3651787 0.34506282 -0.8160401 8.3894464e-39
-0.35461313 0.34435689 -0.81571096 8.4816392e-39
-0.3451525 0.34512031 -0.81761718 8.573832e-39
-0.33437556 0.34850708 -0.81785709 8.5741894e-39
-0.32570028 0.34732956 -0.81784642 8.6656717e-39
-0.31551433 0.34706575 -0.81799996 8.573832e-39
-0.38232863 0.3514334 -0.81099999 8.1142972e-39
-0.37460479 0.35297817 -0.81099999 8.2979668e-39
-0.36478546 0.3525438 -0.81241184 8.3898037e-39
-0.35464352 0.35309213 -0.81482863 8.4819993e-39
-0.34446514 0.35336587 -0.81578785 8.4819979e-39
-0.33484298 0.35409704 -0.81681252 8.5738334e-39
-0.32524383 0.35403335 -0.81699997 8.5745523e-39
-0.31574553 0.35453388 -0.81759387 8.7578674e-39
-0.30928195 0.35524577 -0.81800002 8.8500616e-39
-0.48000669 0.31897718 -0.80899996 5.0722044e-39
-0.47846574 0.31897718 -0.80899996 5.0722044e-39
-0.45653147 0.31895721 -0.80699998 5.44134e-39
-0.43192902 0.31913128 -0.80899996 5.8083303e-39
-0.42514127 0.31731796 -0.80785722 5.6242992e-39
-0.41990954 0.31743622 -0.80899996 5.6242992e-39
-0.39448386 0.31435433 -0.80899996 5.3487927e-39
-0.48212966 0.32424054 -0.80838466 6.6388014e-39
-0.47698495 0.32465777 -0.80779999 6.9161072e-39
-0.4651306 0.32638559 -0.80899996 7.4692838e-39
-0.4555943 0.32617679 -0.80854827 7.6533149e-39
-0.44501629 0.32626414 -0.80849981 7.7451504e-39
-0.43511456 0.32498863 -0.8086189 7.5603976e-39
-0.42889845 0.3241137 -0.80899996 7.283452e-39
-0.41143429 0.32822287 -0.80899996 8.4819951e-39
-0.49156386 0.3359277 -0.80899996 7.7451546e-39
-0.4850328 0.33651844 -0.80857146 7.7458748e-39
-0.47468257 0.33483174 -0.80773681 7.8373516e-39
-0.46554977 0.33544856 -0.80769032 7.8377103e-39
-0.45556298 0.33508471 -0.80727875 7.9295458e-39
-0.44527194 0.33513579 -0.80768162 8.1135784e-39
-0.43560049 0.33497992 -0.80882204 8.1135784e-39
-0.42537609 0.33683926 -0.80811101 8.2054139e-39
-0.41494429 0.33798233 -0.80899996 8.1139371e-39
-0.407819 0.33705378 -0.80899996 8.205774e-39
-0.49156386 0.34517336 -0.80899996 7.3763749e-39
-0.48400709 0.34497547 -0.80710238 7.3767336e-39
-0.47529376 0.34545937 -0.80666649 7.4685705e-39
-0.46521181 0.34536907 -0.80618173 7.469288e-39
-0.45458043 0.34479126 -0.80630207 7.6529603e-39
-0.44520706 0.34481838 -0.80686337 7.6529589e-39
-0.43497044 0.34479645 -0.80439103 7.7451546e-39
-0.42491153 0.34469053 -0.80506998 7.8373516e-39
-0.41506061 0.34557813 -0.80837452 7.9295444e-39
-0.40626597 0.3464447 -0.80873334 8.0217401e-39
-0.39421085 0.34632391 -0.80833328 8.1135756e-39
-0.38803074 0.34672159 -0.80822223 8.2054139e-39
-0.49156383 0.35133716 -0.80899996 7.468925e-39
-0.48548561 0.35176519 -0.80899996 7.4689292e-39
-0.47420865 0.35123718 -0.80699998 7.5607675e-39
-0.46498576 0.35123718 -0.80700004 7.4700068e-39
-0.454808 0.3510921 -0.80666661 7.561485e-39
-0.44587681 0.35071489 -0.80580008 7.6533177e-39
-0.424265 0.35061544 -0.8055715 7.92955e-39
-0.41502863 0.35123718 -0.80700004 8.0213813e-39
-0.40471265 0.35129714 -0.8082 8.1135784e-39
-0.39630762 0.35128716 -0.80799997 8.0217373e-39
-0.38544199 0.35218656 -0.8087647 8.1142972e-39
-0.37907434 0.35210764 -0.80899996 8.2979682e-39
