# .PCD v0.7 - Point Cloud Data file format
VERSION 0.7
FIELDS x y z rgb
SIZE 4 4 4 4
TYPE F F F F
COUNT 1 1 1 1
WIDTH 471
HEIGHT 1
VIEWPOINT 0 0 0 1 0 0 0
POINTS 471
DATA ascii
0.022239923 -0.050040007 -0.83400005 1.530411e-38
0.019761831 -0.045057144 -0.83000004 9.590439e-39
0.023370596 -0.044478226 -0.83093333 1.3919735e-38
0.046157543 -0.040581435 -0.83550006 1.318004e-38
0.054587733 -0.042127628 -0.83880019 1.4564006e-38
0.062598027 -0.040411431 -0.83200002 1.4379988e-38
0.099047542 -0.040411435 -0.83200002 1.2626386e-38
0.10233993 -0.040858101 -0.833 1.2718174e-38
0.023714211 -0.038733337 -0.83000004 1.4468934e-38
0.045843732 -0.038014553 -0.83636373 1.4471108e-38
0.054844156 -0.037745401 -0.8373335 1.437926e-38
0.064226866 -0.037265856 -0.83257145 1.3920081e-38
0.098255157 -0.038826674 -0.83200002 1.4749829e-38
0.10385212 -0.038052198 -0.83239996 1.8345473e-38
0.027557436 -0.042822868 -0.82676935 1.3826455e-38
0.034998402 -0.042598322 -0.82408005 1.318253e-38
0.041455548 -0.042551626 -0.82440007 1.3919744e-38
0.058618974 -0.04298858 -0.82066673 1.4563277e-38
0.062031768 -0.042130895 -0.82142866 1.4472175e-38
0.097857073 -0.041491441 -0.82200003 1.3820962e-38
0.10580413 -0.042411186 -0.82373345 1.5021299e-38
0.11476956 -0.042583205 -0.82176477 1.6314976e-38
0.12182849 -0.042952392 -0.82000005 1.6407233e-38
0.027533259 -0.038546674 -0.82600009 1.4654774e-38
0.033039927 -0.038546674 -0.82600003 1.5577443e-38
0.065894783 -0.039154295 -0.82560009 1.3919744e-38
0.096291356 -0.039925721 -0.82200003 1.3270741e-38
0.10855993 -0.037760012 -0.82600003 1.4655502e-38
0.11091993 -0.036973346 -0.82600003 1.1150943e-38
0.048779927 -0.050328575 -0.81300002 1.4467052e-38
0.051038973 -0.050266672 -0.81200004 1.4465942e-38
0.0019318302 -0.041373812 -0.81200004 1.4374549e-38
0.010040878 -0.044025715 -0.81100005 1.5026465e-38
0.036021195 -0.044831432 -0.81633341 1.3550967e-38
0.046031632 -0.045050692 -0.81514835 1.4381057e-38
0.050204691 -0.044025719 -0.81100005 1.3920821e-38
0.065977193 -0.044054687 -0.81677282 1.4471058e-38
0.07243067 -0.043234903 -0.81463635 1.4378501e-38
0.10644583 -0.045062106 -0.81580001 1.3637259e-38
0.11503135 -0.045208242 -0.81463635 1.3731596e-38
0.12216087 -0.04435144 -0.81700009 1.6870707e-38
0.070893258 -0.039731439 -0.81800002 1.2904887e-38
0.053933259 -0.050080955 -0.80900002 1.4466647e-38
0.077111356 -0.05115398 -0.80166674 1.345356e-38
0.081164688 -0.051302869 -0.80400002 1.3545041e-38
0.10349993 -0.051366679 -0.80500007 1.5300509e-38
0.12465612 -0.051239062 -0.80300003 1.4472919e-38
-0.02288579 -0.044245712 -0.80100006 1.372881e-38
-0.003308963 -0.045300316 -0.80166674 1.3183972e-38
0.0044887699 -0.044789072 -0.80500007 1.4102669e-38
0.012755588 -0.046142966 -0.80900002 1.2536431e-38
0.028988499 -0.045008577 -0.80100006 1.5488137e-38
0.034268066 -0.046499487 -0.80281824 1.4841697e-38
0.053760707 -0.04607489 -0.80754548 1.4563252e-38
0.067894213 -0.046534296 -0.80100006 1.4282258e-38
0.075906426 -0.046558369 -0.80509108 1.4191154e-38
0.08489351 -0.046909109 -0.80359274 1.3914206e-38
0.09442696 -0.044150524 -0.80562073 1.4006771e-38
0.10563472 -0.047782812 -0.80547071 1.4284122e-38
0.11481891 -0.047753487 -0.80576944 1.4377427e-38
0.12511913 -0.046781607 -0.80641669 1.567002e-38
0.13183707 -0.046237156 -0.80250007 1.2442107e-38
0.092713907 -0.038780645 -0.80900002 1.4194851e-38
-0.014381028 -0.051760294 -0.79476941 1.5117561e-38
-0.0090743601 -0.050664764 -0.79400003 1.5301591e-38
0.003021355 -0.050632857 -0.79350001 1.5854769e-38
0.035590641 -0.051124055 -0.79525006 1.4099698e-38
0.066377074 -0.050537154 -0.79200006 1.3730895e-38
0.072688505 -0.050728582 -0.79500008 1.3637968e-38
0.086882509 -0.051306542 -0.7972858 1.4284454e-38
0.09409482 -0.051132131 -0.79272723 1.5299762e-38
0.10539199 -0.050558429 -0.79233348 1.5024649e-38
0.11515327 -0.051079065 -0.79340011 1.4472912e-38
0.12143993 -0.050537158 -0.79200006 1.4565114e-38
-0.023625204 -0.046486232 -0.79623073 1.446965e-38
-0.015193528 -0.047100835 -0.79770845 1.5300861e-38
-0.0055395509 -0.047903191 -0.79715008 1.4197407e-38
0.0049489378 -0.048459198 -0.79600006 1.3734985e-38
0.016091358 -0.048022863 -0.79200006 1.530339e-38
0.025873879 -0.047863755 -0.79482365 1.530303e-38
0.035689801 -0.048812825 -0.79745454 1.5394481e-38
0.058098495 -0.047653433 -0.79430002 1.4375906e-38
0.064412929 -0.047982525 -0.79435736 1.4282638e-38
0.07186088 -0.04876649 -0.79760003 1.4190788e-38
0.087509453 -0.049461912 -0.79900002 1.3361389e-38
0.09526594 -0.048654731 -0.79730773 1.3821314e-38
0.1010166 -0.048608106 -0.79750001 1.4190851e-38
0.11534962 -0.049327791 -0.7968334 1.4473626e-38
0.12628946 -0.048807636 -0.79542863 1.5578555e-38
0.13196336 -0.048521157 -0.79360002 1.7791624e-38
-0.033624269 -0.052305341 -0.78459996 1.5210477e-38
-0.025005538 -0.051862698 -0.78530437 1.5025725e-38
-0.016196899 -0.053104129 -0.78533334 1.5025007e-38
-0.0051300162 -0.052520946 -0.78652006 1.5301952e-38
0.0069191023 -0.052704711 -0.7839334 1.5394495e-38
0.015867904 -0.051888816 -0.78400004 1.493278e-38
0.024570918 -0.053760726 -0.78543913 1.4007513e-38
0.036218859 -0.051977739 -0.78812498 1.4097531e-38
0.041465648 -0.051550005 -0.7845 1.3269173e-38
0.057084318 -0.051238675 -0.78660005 1.4190431e-38
0.064987965 -0.052518561 -0.78830445 1.382236e-38
0.071496122 -0.05138858 -0.78200006 1.3269544e-38
0.08799611 -0.052945722 -0.78299999 1.4562959e-38
0.096114635 -0.053814296 -0.7884444 1.4196328e-38
0.10341833 -0.053874582 -0.78350002 1.4657306e-38
0.11643312 -0.053301509 -0.78514296 1.4381079e-38
0.12542588 -0.052857675 -0.78406906 1.2813748e-38
0.13473982 -0.052705083 -0.78503591 1.4011561e-38
0.14287999 -0.052597452 -0.78343755 1.5487075e-38
-0.042051502 -0.049494281 -0.7815001 1.4562928e-38
-0.035942186 -0.048898727 -0.78455567 1.4469651e-38
-0.025579864 -0.048413437 -0.78744453 1.5394141e-38
0.0097808791 -0.048904765 -0.79000002 1.5670733e-38
0.014044371 -0.048403181 -0.79000008 1.5487783e-38
0.039724693 -0.047220007 -0.78700006 1.5208666e-38
0.043555554 -0.048779432 -0.78320009 1.4007888e-38
0.13508564 -0.048780963 -0.78800005 1.5213372e-38
0.17843136 -0.073428586 -0.77100003 1.0319025e-38
-0.072146744 -0.052269518 -0.77300006 1.382209e-38
-0.069022931 -0.052134279 -0.77100003 1.4467822e-38
-0.054098167 -0.051837001 -0.77161545 1.5299784e-38
-0.044346146 -0.053936273 -0.77461773 1.5117921e-38
-0.038368247 -0.054525159 -0.77725005 1.4933889e-38
-0.022816403 -0.054653063 -0.78000009 1.5117562e-38
-0.016233487 -0.054351356 -0.77475011 1.5116843e-38
-0.00398693 -0.055604953 -0.77640003 1.5669273e-38
0.0048364229 -0.055044793 -0.77895993 1.4839112e-38
0.013961911 -0.055474367 -0.77841663 1.4192253e-38
0.028897071 -0.057053342 -0.77800006 1.4925844e-38
0.03277725 -0.0544434 -0.77781254 1.3270259e-38
0.0463898 -0.05240687 -0.77664286 1.3637959e-38
0.054067194 -0.054181479 -0.77495837 1.4098604e-38
0.0659246 -0.05484296 -0.7761001 1.5114272e-38
0.074998319 -0.053213947 -0.77480012 1.4561814e-38
0.083202429 -0.053211085 -0.77737504 1.4747325e-38
0.10802732 -0.05448807 -0.7756924 1.4473633e-38
0.11475779 -0.056560636 -0.77535003 1.0969825e-38
0.12426055 -0.057417504 -0.77864289 5.90193e-39
0.1345479 -0.05610954 -0.77427286 8.1142496e-39
0.14578268 -0.054376088 -0.77770841 1.4655515e-38
0.15185955 -0.053070303 -0.77179998 9.9538896e-39
-0.052901499 -0.049229044 -0.77149999 1.4282718e-38
-0.047251262 -0.049468331 -0.77525002 1.5115364e-38
0.049028501 -0.049771436 -0.78000003 1.4004291e-38
0.050994217 -0.049516194 -0.77600002 1.4467365e-38
0.16886947 -0.078999065 -0.76100004 9.9516882e-39
0.17337556 -0.074995652 -0.76313639 1.0226825e-38
-0.091481246 -0.066335119 -0.76166672 1.2808293e-38
-0.089145795 -0.06885238 -0.76100004 1.2722256e-38
-0.0043522147 -0.06021452 -0.76175004 1.299083e-38
0.086660758 -0.060776476 -0.7610001 1.3919389e-38
0.13693359 -0.060993772 -0.76344448 1.401085e-38
0.14087947 -0.060273826 -0.76250005 1.4381076e-38
0.1568536 -0.060607962 -0.76366675 1.4472189e-38
0.16495228 -0.06107793 -0.76166666 1.1612308e-38
0.17240749 -0.065178685 -0.76194119 1.041158e-38
-0.072762467 -0.055114079 -0.76292866 1.5393059e-38
-0.066658802 -0.05386338 -0.76544458 1.5208308e-38
-0.053073224 -0.055070654 -0.76468748 1.5118643e-38
-0.047751974 -0.055771902 -0.76550001 1.502645e-38
-0.033790119 -0.056138963 -0.76372731 1.5209762e-38
-0.026868263 -0.054457139 -0.76240009 1.5026444e-38
-0.014139973 -0.056534383 -0.76468426 1.5208291e-38
-0.0057457858 -0.057650585 -0.76522225 1.4284453e-38
0.0036237382 -0.057256192 -0.7610001 1.2900434e-38
0.018140882 -0.057331435 -0.76200008 1.4191492e-38
0.025284691 -0.05772341 -0.76442868 1.4466651e-38
0.037053198 -0.055685654 -0.76507151 1.4189346e-38
0.044451118 -0.05557517 -0.76616681 1.4282625e-38
0.054582313 -0.056766517 -0.76416677 1.5392664e-38
0.065427758 -0.056226995 -0.76233333 1.4473626e-38
0.07361643 -0.056608904 -0.76533341 1.3919745e-38
0.085880883 -0.056438483 -0.76447839 1.4657302e-38
0.093954265 -0.05667856 -0.76352626 1.4842413e-38
0.10382231 -0.056719344 -0.76550007 1.5026443e-38
0.12794566 -0.057957157 -0.76550001 8.1121308e-39
0.1350992 -0.058421168 -0.7667858 1.3919732e-38
0.14518741 -0.057683773 -0.76350003 1.4381438e-38
0.15376695 -0.057092447 -0.76665008 1.5579985e-38
-0.08492323 -0.075643234 -0.75525016 1.8623509e-38
0.15745778 -0.075149484 -0.75150001 1.0138977e-38
0.16490647 -0.074831218 -0.75641477 1.0782895e-38
-0.090119123 -0.062722847 -0.75700003 1.3360749e-38
-0.085027695 -0.064974181 -0.75477773 1.9730948e-38
-0.077074997 -0.06108762 -0.75166672 1.6320452e-38
-0.065124437 -0.06082993 -0.75142866 1.5763649e-38
-0.054324921 -0.061352558 -0.75145453 1.5486349e-38
-0.046978325 -0.061047144 -0.7511667 1.5394153e-38
-0.013168642 -0.062215317 -0.75223082 1.3821274e-38
-0.0093972152 -0.061442863 -0.75900006 1.2623435e-38
0.0059829974 -0.061534815 -0.75422227 1.4557777e-38
0.015592666 -0.061105598 -0.75262499 1.419078e-38
0.022923501 -0.06089643 -0.75225008 1.4465593e-38
0.047931835 -0.061523974 -0.75116676 1.5210117e-38
0.054891199 -0.062772147 -0.75258327 1.4933891e-38
0.066196188 -0.061990008 -0.75435716 1.4842413e-38
0.075127281 -0.061533749 -0.75128585 1.4749502e-38
0.085546598 -0.062041603 -0.75166672 1.2813751e-38
0.095197178 -0.061158102 -0.75155556 1.069323e-38
0.10557188 -0.062280633 -0.75255007 1.3367279e-38
0.1148827 -0.06155787 -0.75158334 1.2812303e-38
0.12614591 -0.061411448 -0.75218183 1.3458749e-38
0.13420114 -0.062074773 -0.75349998 1.4380715e-38
0.14502232 -0.061744895 -0.75387502 1.4380719e-38
0.15539192 -0.064226866 -0.75188476 1.2351318e-38
0.16458376 -0.066378273 -0.75694603 1.1244235e-38
-0.083520077 -0.059759997 -0.75600004 2.0284139e-38
-0.075523734 -0.058530971 -0.75678945 1.5673261e-38
-0.065110937 -0.057585288 -0.75618523 1.5394509e-38
-0.055986784 -0.057986625 -0.75578278 1.5302318e-38
-0.04547308 -0.058496609 -0.75522214 1.5394149e-38
-0.03558277 -0.058599364 -0.75500005 1.5485989e-38
-0.025239257 -0.056963716 -0.75714278 1.5301947e-38
-0.015944488 -0.059115153 -0.75781816 1.4007878e-38
-0.008674358 -0.059997149 -0.75900006 1.3082668e-38
0.0057672309 -0.059129369 -0.75716674 1.3177343e-38
0.015109794 -0.058987968 -0.75535715 1.4282255e-38
0.025239864 -0.058808103 -0.75435722 1.4373725e-38
0.034626152 -0.058402143 -0.75270587 1.4743994e-38
0.045399591 -0.059087969 -0.75664294 1.5484163e-38
0.055939436 -0.058596656 -0.75763154 1.5210475e-38
0.064914159 -0.058714464 -0.75782353 1.4933891e-38
0.075355768 -0.058475547 -0.7551052 1.4658025e-38
0.08290755 -0.058600694 -0.75700009 1.4381075e-38
0.095478117 -0.059096873 -0.75490004 1.355095e-38
0.10461722 -0.05916138 -0.75757152 1.3090328e-38
0.11480045 -0.05883912 -0.75343746 8.6670744e-39
0.12452956 -0.059097439 -0.75489998 1.0877979e-38
0.13049231 -0.059839059 -0.75700003 1.3180353e-38
0.1460171 -0.059997164 -0.75900006 1.4289241e-38
0.15107709 -0.059997164 -0.75900006 1.4104852e-38
-0.080283895 -0.071758091 -0.74600005 1.9824241e-38
-0.077253982 -0.075679518 -0.74416673 2.0191942e-38
0.13902566 -0.076922879 -0.74100006 9.032257e-39
0.14517339 -0.074581146 -0.74370205 1.032119e-38
0.15278637 -0.07461331 -0.74754995 9.6769104e-39
-0.0803646 -0.066849753 -0.74675006 2.0007912e-38
-0.075801678 -0.064086705 -0.74322736 1.89934e-38
-0.064440817 -0.062267538 -0.74492323 1.5580697e-38
-0.054881979 -0.063380241 -0.74462503 1.5578541e-38
-0.044002201 -0.062155392 -0.7462309 1.5577789e-38
-0.035143878 -0.062239658 -0.74572003 1.4561414e-38
-0.024378091 -0.062335681 -0.74446177 1.3455013e-38
-0.017429451 -0.063100442 -0.74576926 1.3635818e-38
-0.0064669927 -0.061789084 -0.74346679 1.4005677e-38
0.0083835488 -0.063230105 -0.74600005 1.4467033e-38
0.013735585 -0.063007198 -0.74443746 1.502059e-38
0.024983549 -0.062053978 -0.74666661 1.5391951e-38
0.034719776 -0.061410639 -0.74405563 1.5210106e-38
0.043520372 -0.061943945 -0.74420011 1.5026447e-38
0.058433972 -0.064848341 -0.74825007 1.4934249e-38
0.063119695 -0.063296676 -0.74675012 1.475022e-38
0.074153207 -0.063926347 -0.74464297 1.4749863e-38
0.088790998 -0.065218464 -0.74437505 1.4566184e-38
0.094048835 -0.063998394 -0.74491322 1.4565461e-38
0.10546684 -0.065029457 -0.74491668 1.4565472e-38
0.11467227 -0.064079784 -0.74566668 1.4750218e-38
0.12510838 -0.063819386 -0.74500012 1.4750216e-38
0.13601585 -0.064723969 -0.74313653 1.327436e-38
0.1448954 -0.066367224 -0.74511772 1.207436e-38
0.15248454 -0.066978268 -0.74816668 1.1797408e-38
-0.032072775 -0.059153967 -0.74833339 1.5762206e-38
-0.024871232 -0.058980823 -0.74614298 1.4654007e-38
-0.01918293 -0.058969527 -0.74600005 1.4099686e-38
0.12608728 -0.084715933 -0.73251373 1.0415189e-38
0.13445163 -0.084993668 -0.73786509 1.0505948e-38
-0.072558478 -0.074407309 -0.73704547 2.0099749e-38
-0.068637222 -0.07407809 -0.73239994 2.0100109e-38
0.1266707 -0.074664772 -0.73221433 9.4010381e-39
0.13449083 -0.074973948 -0.73642516 9.9527672e-39
-0.072868079 -0.066680662 -0.7378 2.0007912e-38
-0.066110522 -0.065302804 -0.7339645 1.7333515e-38
-0.056962293 -0.064397141 -0.73233336 1.5948035e-38
-0.044570494 -0.064556137 -0.73505551 1.4283353e-38
-0.034163035 -0.064524449 -0.73555559 1.2254321e-38
-0.024570378 -0.065787569 -0.73717648 1.4282963e-38
-0.01203422 -0.064546809 -0.73100007 1.4097857e-38
-0.0040853084 -0.064644836 -0.73583329 1.4558493e-38
0.005076875 -0.065967731 -0.73495829 1.539159e-38
0.014898027 -0.064883277 -0.7348572 1.5394134e-38
0.025241837 -0.063281484 -0.73377782 1.5302677e-38
0.034888614 -0.064046107 -0.73523527 1.502644e-38
0.044694383 -0.064515859 -0.73399997 1.5025723e-38
0.054894317 -0.065456726 -0.73377782 1.4841699e-38
0.063604869 -0.063985735 -0.73245448 1.4841699e-38
0.077104114 -0.064904965 -0.736 1.4750222e-38
0.083535075 -0.064920187 -0.73460001 1.4565831e-38
0.095663987 -0.067490652 -0.73786962 1.4565469e-38
0.10291211 -0.066553868 -0.73733336 1.456547e-38
0.11631666 -0.066178642 -0.73257142 1.4749497e-38
0.12481388 -0.067624822 -0.73534787 1.2628261e-38
0.13369036 -0.067936458 -0.73794454 1.1981801e-38
-0.062722377 -0.084220648 -0.72452641 1.8995905e-38
-0.059740074 -0.084459998 -0.72100008 1.9638766e-38
0.10872217 -0.086062238 -0.72100013 1.1795965e-38
0.11519624 -0.084815465 -0.72477096 1.041484e-38
0.12146796 -0.0855143 -0.73000008 1.0138251e-38
-0.06409546 -0.075193338 -0.72596979 2.0100107e-38
-0.057101529 -0.072761267 -0.72120011 1.9638409e-38
-0.047105405 -0.071275994 -0.72100002 1.4378551e-38
-0.029526735 -0.071413331 -0.72100002 1.4743972e-38
0.028309455 -0.071119055 -0.72500008 1.4011588e-38
0.033316534 -0.071455374 -0.72242862 1.419597e-38
0.056658179 -0.072455026 -0.72346163 1.4749862e-38
0.063442245 -0.071119063 -0.72300011 1.4749863e-38
0.074721001 -0.071349427 -0.72422224 1.4657302e-38
0.082053274 -0.071020976 -0.7240001 1.4933174e-38
0.1078496 -0.071539462 -0.72128576 1.152046e-38
0.11552665 -0.075023115 -0.72580791 1.0598862e-38
0.12262253 -0.074390486 -0.7299999 1.1151679e-38
-0.062370554 -0.068118617 -0.72700012 1.8808655e-38
-0.054575965 -0.067385472 -0.72481257 1.5209727e-38
-0.045563601 -0.067785047 -0.72534788 1.4742859e-38
-0.034898486 -0.066952951 -0.72481489 1.4190396e-38
-0.026441116 -0.067880668 -0.72290009 1.446627e-38
-0.013090287 -0.067333341 -0.72345465 1.5296461e-38
-0.0079531651 -0.067436434 -0.72625005 1.5480895e-38
0.015785648 -0.066801354 -0.72528583 1.5025725e-38
0.025165396 -0.06699802 -0.72647387 1.4748778e-38
0.035101164 -0.06767153 -0.72592592 1.4288162e-38
0.045159277 -0.066991135 -0.72363156 1.4565105e-38
0.054895461 -0.067729995 -0.72473907 1.474986e-38
0.06504821 -0.067648254 -0.72639406 1.4841699e-38
0.074837923 -0.067862831 -0.726852 1.47495e-38
0.083791867 -0.068556897 -0.72713339 1.4933175e-38
0.098739944 -0.068717919 -0.72299999 1.4842054e-38
0.10541728 -0.068119973 -0.72508699 1.4565466e-38
0.11386974 -0.068596721 -0.72869229 1.3088886e-38
-0.055641811 -0.085219093 -0.71652937 2.0099738e-38
0.096720539 -0.085461646 -0.71375996 1.1703771e-38
0.10377707 -0.084785402 -0.71821433 1.1703772e-38
-0.055176299 -0.074997365 -0.71703446 2.0192304e-38
-0.044117216 -0.071090475 -0.71463639 1.529936e-38
-0.035578933 -0.070623815 -0.71579999 1.455917e-38
-0.024610547 -0.070399687 -0.71766675 1.5943999e-38
-0.015106154 -0.07092873 -0.71383345 1.5578901e-38
-0.0057874499 -0.070403576 -0.71425009 1.5209757e-38
0.0043407888 -0.071616866 -0.71209997 1.4563674e-38
0.016022341 -0.071076311 -0.71317649 1.4473625e-38
0.023863299 -0.071408898 -0.71320003 1.4381436e-38
0.03755644 -0.071015559 -0.71700013 1.4196329e-38
0.045502312 -0.071947977 -0.71464282 1.438036e-38
0.052459359 -0.072812393 -0.71720004 1.4565829e-38
0.065988034 -0.071457639 -0.71799999 1.4841699e-38
0.070530415 -0.07190001 -0.71900004 1.4749503e-38
0.087381206 -0.070590168 -0.71500003 1.5117201e-38
0.09544377 -0.073918119 -0.7145952 1.2719372e-38
0.10400295 -0.075286604 -0.71777278 1.1796692e-38
-0.041085787 -0.069160953 -0.71900004 1.548005e-38
-0.036951501 -0.06911286 -0.71850008 1.4743201e-38
-0.021212928 -0.068428099 -0.71850002 1.4558149e-38
-0.01627421 -0.068416119 -0.71892309 1.5021679e-38
-0.0038011575 -0.068201005 -0.71580958 1.5394142e-38
0.0045738281 -0.068532854 -0.71377283 1.5026087e-38
0.014145519 -0.068604648 -0.71606672 1.4656581e-38
0.03903136 -0.069160953 -0.71900004 1.4104134e-38
0.045177076 -0.069136903 -0.71874994 1.4196686e-38
0.051357076 -0.069160961 -0.71900004 1.4564389e-38
0.087143913 -0.069439217 -0.71483344 1.4933171e-38
0.093420893 -0.068872392 -0.71600002 1.4565825e-38
0.077729493 -0.095103346 -0.70168966 1.1611572e-38
0.091285653 -0.09196192 -0.71000004 1.1703415e-38
-0.051005214 -0.083525322 -0.70840001 2.0376337e-38
-0.046852544 -0.084927291 -0.70459366 1.9547298e-38
0.077799596 -0.085140705 -0.70090902 1.1795962e-38
0.085509852 -0.084882699 -0.70588887 1.1795967e-38
0.092215657 -0.084037632 -0.70905554 1.1795609e-38
-0.051581878 -0.07683 -0.70890003 2.0376334e-38
-0.044859968 -0.075716577 -0.70528871 1.8716813e-38
-0.034580279 -0.073881708 -0.70453632 1.5485955e-38
-0.02496827 -0.073000021 -0.70493537 1.5578899e-38
-0.0154843 -0.073043182 -0.70366669 1.4934257e-38
-0.0045339819 -0.07237532 -0.70626086 1.4565109e-38
0.0049602659 -0.073520534 -0.70375007 1.4471478e-38
0.014032534 -0.074006014 -0.70646143 1.4381078e-38
0.026656445 -0.073291942 -0.70346671 1.4288167e-38
0.034872726 -0.073588505 -0.70406234 1.4472915e-38
0.044070251 -0.074201435 -0.70300007 1.4841696e-38
0.056454312 -0.073467918 -0.70390004 1.4841697e-38
0.065159187 -0.073344111 -0.70600003 1.493353e-38
0.075404294 -0.074999422 -0.70456862 1.354986e-38
0.084792249 -0.075017862 -0.70723075 1.2811572e-38
0.092265643 -0.077550597 -0.70944452 1.1795609e-38
-0.040937975 -0.094239242 -0.69780004 2.0836595e-38
-0.037471458 -0.09540794 -0.6935001 2.0468891e-38
0.065356493 -0.094990306 -0.69282699 1.1703409e-38
0.072788879 -0.094723627 -0.69795841 1.1795243e-38
-0.041688163 -0.084940478 -0.69677275 1.641446e-38
-0.037862629 -0.084501557 -0.69231582 1.7151661e-38
0.047062792 -0.080205724 -0.69600004 1.5209395e-38
0.059799936 -0.080828585 -0.69000006 1.1520453e-38
0.065641522 -0.084740631 -0.69369233 1.1795967e-38
0.073160328 -0.084729977 -0.69833344 1.1887802e-38
-0.040608641 -0.079220004 -0.69900006 2.0838733e-38
-0.035798389 -0.078017153 -0.6952942 1.8348035e-38
-0.024135664 -0.075719163 -0.69437504 1.5395232e-38
-0.014170007 -0.075564317 -0.69417393 1.438036e-38
-0.0059138769 -0.075913861 -0.69468743 1.4472917e-38
0.0058050463 -0.076132633 -0.6938948 1.4472919e-38
0.015381474 -0.076692209 -0.69338101 1.4380357e-38
0.024597578 -0.076471053 -0.69470596 1.4565472e-38
0.034326043 -0.076918826 -0.69241184 1.4842416e-38
0.045830507 -0.077038139 -0.69536674 1.4842056e-38
0.055516995 -0.076934971 -0.69422859 1.4288512e-38
0.064713269 -0.077309646 -0.69643742 1.327291e-38
0.07217899 -0.078830488 -0.69850004 1.1888517e-38
-0.032526314 -0.094640799 -0.68531036 1.8626069e-38
-0.029185785 -0.097285725 -0.68100005 1.8166882e-38
0.047281574 -0.094950676 -0.68156004 1.1704127e-38
0.054657515 -0.095065892 -0.68632215 1.1795964e-38
0.061025649 -0.091210485 -0.68900001 1.1704844e-38
-0.03297716 -0.084996149 -0.68477762 1.67836e-38
-0.025145572 -0.080860853 -0.68288904 1.6872539e-38
-0.016286377 -0.080464892 -0.68412501 1.5579259e-38
-0.0032509516 -0.081105165 -0.68285728 1.4565473e-38
0.0040406003 -0.081107147 -0.68350011 1.4934254e-38
0.013719934 -0.080360003 -0.68600005 1.5209755e-38
0.0261866 -0.080516189 -0.68733335 1.5026088e-38
0.035957515 -0.080706745 -0.68469232 1.5209754e-38
0.047085177 -0.084072664 -0.68138885 1.2165115e-38
0.054781213 -0.084951513 -0.68557137 1.1795964e-38
0.061025649 -0.089241907 -0.68900001 1.1704128e-38
-0.032093085 -0.078590482 -0.68766677 1.7703027e-38
-0.024600545 -0.077575125 -0.6867308 1.5395593e-38
-0.015456615 -0.078415588 -0.68687505 1.5119364e-38
-0.0052195312 -0.078850888 -0.68568754 1.4565468e-38
0.0045702853 -0.078505255 -0.6852175 1.4380719e-38
0.015344221 -0.079250716 -0.68562508 1.5025728e-38
0.024069553 -0.079370759 -0.68650007 1.502609e-38
0.036044694 -0.078756198 -0.68816674 1.493389e-38
0.043211129 -0.079262473 -0.68408334 1.4564028e-38
0.052495174 -0.079399057 -0.68900001 1.3920436e-38
-0.02598498 -0.095023602 -0.67559379 1.8440233e-38
0.036307644 -0.095184438 -0.67369765 1.188744e-38
0.042556193 -0.094798885 -0.67814821 1.1887439e-38
-0.025707614 -0.085301258 -0.67702711 1.8717163e-38
-0.014678616 -0.082020871 -0.67561907 1.5210485e-38
-0.0078642331 -0.08137393 -0.67412502 1.5395595e-38
0.0056674704 -0.082647406 -0.67500001 1.511865e-38
0.015096758 -0.081739441 -0.67449999 1.502609e-38
0.025107518 -0.081784941 -0.67334622 1.4657303e-38
0.035116732 -0.084655158 -0.67423993 1.2533897e-38
0.043314911 -0.085511178 -0.6782223 1.1888161e-38
-0.021057211 -0.10081905 -0.67000002 1.6598506e-38
-0.01698548 -0.10476867 -0.66415799 1.8810443e-38
0.017653566 -0.10464977 -0.66193748 1.1519373e-38
0.0312666 -0.10018095 -0.67000002 1.1795611e-38
-0.021752516 -0.094379537 -0.66892868 1.8992998e-38
-0.017623965 -0.095291339 -0.66371882 1.8257277e-38
0.018287633 -0.094583809 -0.66208339 1.1795601e-38
0.025245249 -0.094963357 -0.66574216 1.1795602e-38
0.031722188 -0.094355166 -0.66981822 1.1795962e-38
-0.022032449 -0.087305717 -0.6691429 1.9914989e-38
-0.01571089 -0.085820325 -0.66490257 1.8440229e-38
-0.0050957655 -0.083998851 -0.66624254 1.5211201e-38
0.0048949993 -0.083989084 -0.66400015 1.5210844e-38
0.016046951 -0.085793346 -0.66552627 1.3641698e-38
0.025232252 -0.086897023 -0.66806978 1.2072916e-38
0.031813543 -0.088330612 -0.67000002 1.1888157e-38
-0.011852905 -0.10507785 -0.65791303 1.8720397e-38
-0.0051172916 -0.10514096 -0.654293 1.3644969e-38
0.0051534697 -0.10507616 -0.65537697 1.1611208e-38
0.012501874 -0.10510071 -0.65972412 1.1703402e-38
-0.012435812 -0.094656073 -0.65706676 1.8442025e-38
-0.0048660785 -0.094886854 -0.65217167 1.28134e-38
0.0048519596 -0.094957694 -0.6542387 1.1703404e-38
0.013111851 -0.095242038 -0.6586923 1.1703412e-38
-0.012497469 -0.088721998 -0.65900004 2.0560731e-38
-0.0048328908 -0.087650284 -0.65646672 1.3736779e-38
0.0050657471 -0.087224752 -0.65843582 1.410268e-38
0.012380413 -0.088272192 -0.65935719 1.2164755e-38
