# .PCD v0.7 - Point Cloud Data file format
VERSION 0.7
FIELDS x y z rgb
SIZE 4 4 4 4
TYPE F F F F
COUNT 1 1 1 1
WIDTH 971
HEIGHT 1
VIEWPOINT 0 0 0 1 0 0 0
POINTS 971
DATA ascii
0.33027992 0.0027599712 -0.96600002 4.2395668e-39
0.33211991 0.002759971 -0.96600002 4.0559043e-39
0.34576279 0.0027513984 -0.96300012 3.3208574e-39
0.34392852 0.0045856843 -0.96300012 3.7796677e-39
0.34576279 0.0045856843 -0.96300012 3.504178e-39
0.34759706 0.0045856843 -0.96300012 3.504178e-39
0.34943134 0.0045856838 -0.96300012 4.1480999e-39
0.35126564 0.0045856838 -0.96300012 4.1480999e-39
0.32741994 -0.00091717154 -0.96300006 3.7796677e-39
0.32925421 0.00091711408 -0.96300006 4.1473712e-39
0.33108851 0.00091711397 -0.96300006 3.7796677e-39
0.33292279 0.0027513995 -0.96300006 4.0559043e-39
0.33475706 0.0027513993 -0.96300006 3.7793174e-39
0.33659136 0.0027513993 -0.96300006 3.5027305e-39
0.34468564 0.00091425556 -0.9600001 3.6871217e-39
0.34651423 0.00091425545 -0.9600001 3.7793174e-39
0.34834278 0.00091425527 -0.9600001 4.0562546e-39
0.35017136 0.0009142551 -0.9600001 3.6874721e-39
0.35199991 0.00091425492 -0.9600001 7.1886611e-43
0.35382849 0.00091425481 -0.9600001 6.4644841e-40
0.35565704 0.00091425463 -0.9600001 1.1798269e-38
0.34102848 0.0027428274 -0.9600001 3.5030836e-39
0.34285706 0.0027428272 -0.9600001 3.5952792e-39
0.34651423 0.0027428269 -0.9600001 3.5974442e-39
0.34834278 0.0027428267 -0.9600001 4.1480999e-39
0.35017136 0.0027428267 -0.9600001 3.7793174e-39
0.35199991 0.0027428265 -0.9600001 1.8582339e-40
0.35382849 0.0027428262 -0.9600001 5.5460591e-40
0.35565704 0.002742826 -0.9600001 9.5041751e-39
0.35199991 0.0045713978 -0.9600001 1.8762546e-40
0.35382849 0.0045713978 -0.9600001 3.7201672e-40
0.35565704 0.0045713973 -0.9600001 1.2720213e-38
0.32639992 -0.0027428858 -0.96000004 3.6853239e-39
0.3282285 -0.00091431441 -0.96000004 3.6874721e-39
0.33005708 -0.00091431459 -0.96000004 3.7793174e-39
0.33188564 0.00091425673 -0.96000004 3.8718633e-39
0.33371422 0.00091425655 -0.96000004 3.7796677e-39
0.33554277 0.00091425638 -0.96000004 3.5030808e-39
0.33737135 0.0009142562 -0.96000004 3.4105349e-39
0.33737135 0.0027428276 -0.96000004 3.5027305e-39
0.3391999 0.0027428276 -0.96000004 3.5027305e-39
0.32537994 -0.0045571709 -0.95700002 3.4090901e-39
0.33813989 0.00091139902 -0.95700002 3.4105349e-39
0.33996275 0.00091139885 -0.95700002 3.410888e-39
0.34178561 0.00091139873 -0.95700008 3.5030836e-39
0.34107137 -0.00090955367 -0.9550001 3.5027333e-39
0.34289038 -0.00090955384 -0.9550001 3.5949261e-39
0.34470943 -0.00090955402 -0.9550001 3.9637086e-39
0.32288089 -0.0063666953 -0.95500004 3.222943e-39
0.32469994 -0.0063666953 -0.95500004 3.132506e-39
0.32651895 -0.0027286003 -0.95500004 3.7775195e-39
0.3218666 -0.0099733612 -0.95200002 4.8842328e-39
0.32367992 -0.0099733612 -0.95200002 4.3317625e-39
0.32005325 -0.0081600277 -0.95200002 4.9764284e-39
0.3218666 -0.0081600277 -0.95200002 4.0544721e-39
0.32367992 -0.0081600277 -0.95200002 3.4090901e-39
0.32549325 -0.0063466951 -0.95200002 3.4090929e-39
0.32730657 -0.0063466951 -0.95200002 3.5934814e-39
0.32549325 -0.0045333621 -0.95200002 3.685677e-39
0.32730657 -0.0045333621 -0.95200002 3.5030836e-39
0.32730657 -0.0027200286 -0.95200002 3.5027305e-39
0.33637327 -0.0027200293 -0.95200002 3.4094404e-39
0.33818659 -0.0027200296 -0.95200002 3.1343011e-39
0.33999991 -0.0027200298 -0.95200002 3.3186924e-39
0.34181327 -0.0027200298 -0.95200008 3.410888e-39
0.32911992 -0.00090669544 -0.95200002 3.871513e-39
0.33093324 -0.00090669561 -0.95200002 3.7796677e-39
0.33274657 -0.00090669579 -0.95200002 3.5952764e-39
0.33455989 -0.0009066959 -0.95200002 3.410888e-39
0.33637327 -0.00090669608 -0.95200002 3.3186924e-39
0.33818659 -0.00090669625 -0.95200002 3.318342e-39
0.34543991 -0.00090669689 -0.95200008 4.2399424e-39
0.34725323 -0.00090669707 -0.95200008 3.2257905e-39
0.34109518 -0.0063333637 -0.95000011 3.2257554e-39
0.34109518 -0.0045238393 -0.95000011 3.5016361e-39
0.32480946 -0.0099524092 -0.95000005 3.7785887e-39
0.32480946 -0.0081428848 -0.95000005 3.4090901e-39
0.32661897 -0.0081428858 -0.95000005 3.685677e-39
0.32842848 -0.0063333628 -0.95000005 3.685677e-39
0.33023804 -0.0063333628 -0.95000005 3.5938317e-39
0.33204755 -0.0063333628 -0.95000005 3.6860273e-39
0.33385706 -0.0063333632 -0.95000005 3.685677e-39
0.3356666 -0.0063333632 -0.95000005 3.4090901e-39
0.3374761 -0.0063333632 -0.95000005 3.1343011e-39
0.33928564 -0.0063333637 -0.95000005 2.6733229e-39
0.32842848 -0.0045238384 -0.95000005 3.5030836e-39
0.33023804 -0.0045238384 -0.95000005 3.5952764e-39
0.33204755 -0.0045238384 -0.95000005 3.6874721e-39
0.33385706 -0.0045238389 -0.95000005 3.685677e-39
0.3356666 -0.0045238389 -0.95000005 3.685677e-39
0.3374761 -0.0045238389 -0.95000005 3.4090901e-39
0.33928564 -0.0045238393 -0.95000005 3.2246989e-39
0.32842848 -0.0027143145 -0.95000005 3.6871217e-39
0.33023804 -0.0027143147 -0.95000005 3.7800208e-39
0.33204755 -0.002714315 -0.95000005 3.5956296e-39
0.33385706 -0.002714315 -0.95000005 3.8704186e-39
0.33460659 -0.0099209808 -0.94700003 3.4090901e-39
0.3364104 -0.0099209817 -0.94700003 3.5016361e-39
0.32739136 -0.0081171719 -0.94700003 3.7778726e-39
0.32919514 -0.0081171719 -0.94700003 3.5027305e-39
0.33099896 -0.0081171719 -0.94700003 3.4105349e-39
0.33280277 -0.0081171719 -0.94700003 3.410888e-39
0.33460659 -0.0081171719 -0.94700003 3.3186924e-39
0.3364104 -0.0081171729 -0.94700003 3.1346514e-39
0.33821419 -0.0081171729 -0.94700003 2.8580645e-39
0.340018 -0.0081171729 -0.94700003 2.8562667e-39
0.34182185 -0.0081171729 -0.94700009 3.2250492e-39
0.34362563 -0.0081171729 -0.94700009 3.1343011e-39
0.34542945 -0.0081171729 -0.94700009 3.410888e-39
0.34182185 -0.0063133631 -0.94700009 3.6867336e-39
0.34362563 -0.0063133636 -0.94700009 3.8704186e-39
0.34542945 -0.0063133636 -0.94700009 3.6860273e-39
0.34182185 -0.0045095538 -0.94700009 4.0548098e-39
0.34362563 -0.0045095542 -0.94700009 4.0548253e-39
0.34542945 -0.0045095542 -0.94700009 3.5938471e-39
0.34182185 -0.0027057442 -0.94700009 3.6874749e-39
0.34362563 -0.0027057445 -0.94700009 4.332138e-39
0.34542945 -0.0027057447 -0.94700009 3.3179861e-39
0.34253708 -0.0098895542 -0.94400012 3.4097964e-39
0.34433517 -0.0098895542 -0.94400012 3.6863833e-39
0.34613326 -0.00089907792 -0.94400012 3.5873241e-43
0.34793136 -0.00089907809 -0.94400012 6.4608547e-40
0.34972945 -0.00089907821 -0.94400012 8.8606064e-39
0.32455611 -0.015283838 -0.94400007 3.5949261e-39
0.32995042 -0.011687649 -0.94400007 3.6871217e-39
0.33174852 -0.011687649 -0.94400007 3.410888e-39
0.33354661 -0.011687649 -0.94400007 3.1343011e-39
0.3353447 -0.011687649 -0.94400007 3.0421055e-39
0.3371428 -0.01168765 -0.94400007 2.8577142e-39
0.33894089 -0.01168765 -0.94400007 2.6733229e-39
0.32455611 -0.0098895524 -0.94400007 3.5027305e-39
0.32635421 -0.0098895533 -0.94400007 3.5949261e-39
0.32815233 -0.0098895533 -0.94400007 3.5945758e-39
0.32995042 -0.0098895533 -0.94400007 3.5023802e-39
0.33174852 -0.0098895533 -0.94400007 3.685677e-39
0.3371428 -0.0098895542 -0.94400007 3.2250492e-39
0.33894089 -0.0098895542 -0.94400007 2.6733229e-39
0.34073898 -0.0098895542 -0.94400007 2.6733229e-39
0.34360564 -0.011662887 -0.94200009 3.685677e-39
0.34539992 -0.011662887 -0.94200009 2.026897e-39
0.34539992 -0.0098686013 -0.94200009 2.1194429e-39
0.34539992 -0.0080743162 -0.94200009 1.3818779e-39
0.34539992 -0.0062800306 -0.94200009 3.706e-40
0.34539992 -0.0044857445 -0.94200009 2.7623376e-40
0.34539992 -0.0026914589 -0.94200009 5.6051939e-45
0.32566279 -0.017045742 -0.94200003 3.2279415e-39
0.32566279 -0.015251457 -0.94200003 3.6871217e-39
0.32745707 -0.015251457 -0.94200003 3.0442705e-39
0.32386848 -0.013457171 -0.94200003 3.5945758e-39
0.32566279 -0.013457172 -0.94200003 3.5945758e-39
0.32745707 -0.013457172 -0.94200003 3.5030836e-39
0.32925135 -0.013457172 -0.94200003 3.410888e-39
0.33104566 -0.013457172 -0.94200003 3.2261464e-39
0.33283994 -0.013457172 -0.94200003 3.1339508e-39
0.33463418 -0.013457172 -0.94200003 2.9502602e-39
0.32027993 -0.011662886 -0.94200003 4.4246868e-39
0.32386848 -0.011662886 -0.94200003 3.5949261e-39
0.32566279 -0.011662886 -0.94200003 3.6871217e-39
0.32745707 -0.011662886 -0.94200003 3.6871217e-39
0.34251136 -0.013414316 -0.93900013 3.1343011e-39
0.3460885 -0.011625744 -0.93900013 1.8370182e-40
0.3460885 -0.0098371729 -0.93900013 2.7553031e-40
0.3460885 -0.0080486014 -0.93900013 3.6772594e-40
0.3460885 -0.0062600304 -0.93900013 1.8174841e-42
0.34966564 -0.00089431636 -0.93900013 2.0569356e-38
0.3264142 -0.01878003 -0.93900007 3.5027305e-39
0.3264142 -0.016991457 -0.93900007 3.4105349e-39
0.32820281 -0.016991457 -0.93900007 3.5027305e-39
0.32999137 -0.016991457 -0.93900007 3.4112383e-39
0.32820281 -0.015202887 -0.93900007 3.0442705e-39
0.32999137 -0.015202887 -0.93900007 3.1343011e-39
0.33177993 -0.015202887 -0.93900007 3.0421055e-39
0.33356851 -0.015202887 -0.93900007 2.9499098e-39
0.33535707 -0.013414315 -0.93900007 2.8580645e-39
0.33714566 -0.013414316 -0.93900007 2.8580645e-39
0.33893421 -0.011625744 -0.93900007 2.4889317e-39
0.3407228 -0.011625744 -0.93900007 3.1325032e-39
0.39710945 0.065143771 -0.9370001 1.4012669e-38
0.32750374 -0.022309553 -0.93700004 3.4105349e-39
0.32750374 -0.020524791 -0.93700004 3.2257933e-39
0.32750374 -0.018740028 -0.93700004 3.133948e-39
0.32928851 -0.018740028 -0.93700004 3.2261464e-39
0.33107325 -0.01874003 -0.93700004 3.1339508e-39
0.33107325 -0.01695527 -0.93700004 3.1346514e-39
0.332858 -0.01695527 -0.93700004 3.0424558e-39
0.33464277 -0.015170505 -0.93700004 2.6733229e-39
0.33642754 -0.015170506 -0.93700004 2.2148629e-39
0.33821231 -0.013385744 -0.93700004 2.5814776e-39
0.33999705 -0.013385744 -0.93700004 2.5811273e-39
0.3282342 -0.020459076 -0.93400002 3.0421055e-39
0.33001325 -0.020459076 -0.93400002 3.0421055e-39
0.33179229 -0.01868003 -0.93400002 2.7655186e-39
0.33357134 -0.016900983 -0.93400002 2.6736733e-39
0.33712941 -0.015121935 -0.93400002 1.7538848e-39
0.33890849 -0.015121935 -0.93400002 2.2123448e-39
0.34068754 -0.015121935 -0.93400002 2.6733229e-39
0.34602469 -0.0080057438 -0.93400007 5.6946808e-40
0.34780371 -0.0080057448 -0.93400007 1.8731929e-38
0.34958276 -0.0080057448 -0.93400007 2.2957794e-38
0.34602469 -0.006226697 -0.93400007 5.3503173e-39
0.34780371 -0.006226697 -0.93400007 2.2037648e-38
0.34958276 -0.0062266975 -0.93400007 2.3324059e-38
0.34780371 -0.0044476492 -0.93400007 1.9835748e-38
0.34780371 -0.0026686019 -0.93400007 2.295385e-38
0.39583799 0.06671425 -0.93400007 1.4013029e-38
0.39583799 0.068493292 -0.93400007 1.4013029e-38
0.34528372 -0.011539077 -0.9320001 9.4415287e-41
0.34705898 -0.011539078 -0.9320001 1.9732075e-38
0.34883419 -0.011539078 -0.9320001 2.2957794e-38
0.34528372 -0.0097638397 -0.9320001 1.8774036e-40
0.34705898 -0.0097638406 -0.9320001 2.102387e-38
0.34883419 -0.0097638406 -0.9320001 2.314075e-38
0.39321515 0.006213299 -0.9320001 8.9436795e-39
0.39499041 0.006213299 -0.9320001 1.1152424e-38
0.39499041 0.0079885377 -0.9320001 1.1982883e-38
0.34173325 0.015089494 -0.9320001 1.4852531e-39
0.34350851 0.015089494 -0.9320001 5.4496651e-39
0.39143991 0.020415206 -0.9320001 6.4716727e-40
0.39321515 0.020415206 -0.9320001 1.0051122e-38
0.39143991 0.022190444 -0.9320001 5.5497165e-40
0.39321515 0.022190444 -0.9320001 1.0143317e-38
0.39321515 0.061245687 -0.9320001 1.125365e-38
0.38966468 0.063020922 -0.9320001 3.6986432e-40
0.39143991 0.063020922 -0.9320001 2.1262798e-39
0.39321515 0.063020922 -0.9320001 1.1438038e-38
0.38966468 0.064796157 -0.9320001 5.5317658e-40
0.39143991 0.064796157 -0.9320001 1.8496958e-39
0.39321515 0.064796157 -0.9320001 1.1530237e-38
0.38966468 0.066571392 -0.9320001 1.8439406e-40
0.39143991 0.066571392 -0.9320001 1.664601e-39
0.39321515 0.066571392 -0.9320001 1.1713925e-38
0.39321515 0.071897112 -0.9320001 1.2082358e-38
0.38433897 0.073672347 -0.9320001 4.6062782e-40
0.32753137 -0.023965742 -0.93200004 3.1339508e-39
0.32753137 -0.022190506 -0.93200004 3.2261464e-39
0.33108184 -0.020415269 -0.93200004 2.7655186e-39
0.33285707 -0.01864003 -0.93200004 2.3045404e-39
0.33463231 -0.016864792 -0.93200004 2.4889317e-39
0.33640754 -0.016864792 -0.93200004 2.3045404e-39
0.33818278 -0.016864792 -0.93200004 2.3048907e-39
0.33995801 -0.016864792 -0.93200004 2.3970864e-39
0.32824656 -0.023888599 -0.92900002 2.8573639e-39
0.32824656 -0.022119075 -0.92900002 3.2261464e-39
0.33178562 -0.020349555 -0.92900002 2.3967361e-39
0.33355513 -0.018580031 -0.92900002 2.6715251e-39
0.33532467 -0.018580031 -0.92900002 2.5793294e-39
0.33709419 -0.018580031 -0.92900002 2.1204995e-39
0.34240279 -0.004423839 -0.92900008 5.5282065e-40
0.3441723 -0.0044238395 -0.92900008 4.7157631e-39
0.34240279 -0.0026543159 -0.92900008 6.4573515e-40
0.3441723 -0.0026543159 -0.92900008 1.0138745e-38
0.34240279 0.0061933035 -0.92900008 1.2939856e-39
0.3441723 0.006193303 -0.92900008 1.1992018e-38
0.34594181 0.006193303 -0.92900008 2.1211487e-38
0.34771135 0.006193303 -0.92900008 2.2588661e-38
0.34240279 0.0079628276 -0.92900008 2.9524308e-39
0.3441723 0.0079628276 -0.92900008 1.4472309e-38
0.34240279 0.0097323507 -0.92900008 3.5970645e-39
0.3441723 0.0097323507 -0.92900008 1.3464634e-38
0.34240279 0.011501876 -0.92900008 4.0569959e-39
0.3441723 0.011501876 -0.92900008 1.5210227e-38
0.34240279 0.013271399 -0.92900008 5.2623213e-39
0.3441723 0.013271399 -0.92900008 1.4385865e-38
0.3441723 0.015040923 -0.92900008 1.5948148e-38
0.34063324 0.016810447 -0.92900002 4.8024642e-39
0.34240279 0.016810447 -0.92900008 6.8307681e-39
0.3441723 0.016810447 -0.92900008 1.5492565e-38
0.34594181 0.016810447 -0.92900008 2.1669588e-38
0.34771135 0.016810447 -0.92900008 2.046927e-38
0.34063324 0.018579971 -0.92900002 4.8946879e-39
0.34063324 0.020349495 -0.92900002 3.6075462e-39
0.34063324 0.022119017 -0.92900002 4.2521925e-39
0.33886373 0.046892349 -0.92900002 8.2068754e-39
0.33886373 0.048661876 -0.92900002 8.2054391e-39
0.34594181 0.064587593 -0.92900008 2.2682649e-38
0.34594181 0.066357113 -0.92900008 2.2314948e-38
0.34594181 0.068126641 -0.92900008 2.2682649e-38
0.38841039 0.068126634 -0.92900008 1.0818024e-42
0.3901799 0.068126634 -0.92900008 1.664601e-39
0.39194942 0.068126634 -0.92900008 1.1990512e-38
0.38310182 0.069896162 -0.92900008 1.6556173e-39
0.38841039 0.069896154 -0.92900008 1.4349296e-42
0.3901799 0.069896154 -0.92900008 9.3100308e-40
0.39194942 0.069896154 -0.92900008 1.1256914e-38
0.38310182 0.071665682 -0.92900008 9.1981792e-40
0.38841039 0.071665674 -0.92900008 9.327463e-41
0.3901799 0.071665674 -0.92900008 1.6642521e-39
0.3441723 0.07343521 -0.92900008 2.0010451e-38
0.37602374 0.07343521 -0.92900008 4.6097815e-40
0.37779325 0.07343521 -0.92900008 4.6097815e-40
0.37956277 0.07343521 -0.92900008 4.6097815e-40
0.38133231 0.07343521 -0.92900008 5.5317378e-40
0.38487136 0.073435202 -0.92900008 1.8404094e-40
0.38664088 0.073435202 -0.92900008 3.5873241e-43
0.38841039 0.073435202 -0.92900008 1.8510732e-40
0.3901799 0.073435202 -0.92900008 1.938681e-39
0.34063324 0.075204737 -0.92900002 2.0495616e-39
0.34240279 0.075204737 -0.92900008 1.1822298e-38
0.3441723 0.075204737 -0.92900008 2.0561464e-38
0.34594181 0.075204737 -0.92900008 2.2681931e-38
0.38841039 0.07520473 -0.92900008 1.8547306e-40
0.34240279 0.07697425 -0.92900008 1.1268734e-38
0.3441723 0.07697425 -0.92900008 1.9087791e-38
0.34594181 0.078743778 -0.92900008 2.258902e-38
0.34771135 0.078743778 -0.92900008 1.9173887e-38
0.34594181 0.080513306 -0.92900008 2.1945095e-38
0.34771135 0.080513306 -0.92900008 1.7889984e-38
0.35655895 0.080513306 -0.92900008 3.1343011e-39
0.34594181 0.082282826 -0.92900008 2.2496467e-38
0.34771135 0.082282826 -0.92900008 1.9358275e-38
0.3441723 0.084052354 -0.92900008 1.7613042e-38
0.34594181 0.084052354 -0.92900008 2.1577394e-38
0.34948087 0.084052354 -0.92900008 2.9525359e-42
0.35125041 0.084052354 -0.92900008 2.8025969e-45
0.35832846 0.084052354 -0.92900008 3.6867336e-39
0.34594181 0.085821874 -0.92900008 2.2404272e-38
0.34771135 0.085821874 -0.92900008 1.9450828e-38
0.34948087 0.085821874 -0.92900008 7.3511837e-40
0.35125041 0.085821874 -0.92900008 1.2611686e-44
0.35655895 0.085821874 -0.92900008 3.4094404e-39
0.35832846 0.085821874 -0.92900008 3.4112383e-39
0.34594181 0.087591395 -0.92900008 2.1577035e-38
0.34771135 0.087591395 -0.92900008 1.844279e-38
0.34948087 0.087591395 -0.92900008 2.5910009e-42
0.35125041 0.087591395 -0.92900008 2.8025969e-45
0.34594181 0.089360923 -0.92900008 2.2403914e-38
0.34948087 0.089360923 -0.92900008 9.191537e-40
0.34771135 0.09113045 -0.92900008 1.761376e-38
0.34948087 0.09113045 -0.92900008 2.962345e-42
0.34771135 0.092899978 -0.92900008 1.9173528e-38
0.34948087 0.092899978 -0.92900008 9.1879637e-40
0.34771135 0.094669491 -0.92900008 1.7889266e-38
0.34594181 0.096439019 -0.92900008 2.1942225e-38
0.38133231 0.10528664 -0.92900008 9.1910185e-40
0.38310182 0.10528664 -0.92900008 6.4428761e-40
0.37956277 0.10705616 -0.92900008 1.6577235e-39
0.38133231 0.10705616 -0.92900008 9.2015843e-40
0.38487136 0.10705616 -0.92900008 3.6843219e-40
0.39110562 0.0026485373 -0.92700011 9.4950583e-39
0.39110562 0.004414252 -0.92700011 9.4032158e-39
0.34519708 0.0079456847 -0.92700011 2.2769821e-38
0.34696278 0.0079456838 -0.92700011 2.3046762e-38
0.39110562 0.0079456801 -0.92700011 8.8518469e-39
0.34519708 0.0097113987 -0.92700011 2.1485559e-38
0.34696278 0.0097113978 -0.92700011 2.1575959e-38
0.34519708 0.011477114 -0.92700011 2.2770179e-38
0.34696278 0.011477113 -0.92700011 2.2492879e-38
0.39287135 0.011477109 -0.92700011 1.198434e-38
0.34519708 0.013242828 -0.92700011 2.166923e-38
0.34696278 0.013242827 -0.92700011 2.1206824e-38
0.39287135 0.013242823 -0.92700011 1.1984353e-38
0.34519708 0.015008542 -0.92700011 2.2770538e-38
0.34696278 0.015008541 -0.92700011 2.1847161e-38
0.34872848 0.015008541 -0.92700011 3.500232e-39
0.35049421 0.015008541 -0.92700011 3.0828566e-44
0.34872848 0.016774256 -0.92700011 2.0301466e-39
0.35049421 0.016774256 -0.92700011 2.755205e-40
0.35225993 0.016774254 -0.92700011 2.755205e-40
0.34166566 0.018539971 -0.92700011 7.5683612e-39
0.34343135 0.018539971 -0.92700011 1.705377e-38
0.34519708 0.018539971 -0.92700011 2.2862015e-38
0.34696278 0.018539971 -0.92700011 2.1201084e-38
0.34872848 0.018539971 -0.92700011 2.3009825e-39
0.34166566 0.020305686 -0.92700011 7.5719583e-39
0.34343135 0.020305686 -0.92700011 1.6504915e-38
0.34519708 0.020305686 -0.92700011 2.2036572e-38
0.34696278 0.020305686 -0.92700011 1.982391e-38
0.34166566 0.022071399 -0.92700011 8.5853871e-39
0.34343135 0.022071399 -0.92700011 1.7331433e-38
0.34519708 0.022071399 -0.92700011 2.2678703e-38
0.34696278 0.022071399 -0.92700011 2.0647918e-38
0.34166566 0.023837114 -0.92700011 8.4031441e-39
0.34696278 0.023837114 -0.92700011 1.9178551e-38
0.3840428 0.025602825 -0.92700011 3.6770072e-40
0.3858085 0.025602825 -0.92700011 1.0761972e-42
0.3840428 0.027368538 -0.92700011 1.7524232e-39
0.3840428 0.029134253 -0.92700011 2.6725564e-39
0.38933992 0.059151396 -0.92700011 1.203267e-39
0.38933992 0.060917113 -0.92700011 1.7575001e-39
0.34343135 0.06268283 -0.92700011 2.0563258e-38
0.34519708 0.06268283 -0.92700011 2.213056e-38
0.3858085 0.064448535 -0.92700011 9.2198432e-41
0.3840428 0.066214249 -0.92700011 7.3650846e-40
0.3858085 0.066214249 -0.92700011 1.8439406e-40
0.38227707 0.067979977 -0.92700011 3.3165442e-39
0.3840428 0.067979969 -0.92700011 1.1960447e-39
0.3858085 0.067979969 -0.92700011 1.0818024e-42
0.34519708 0.069745682 -0.92700011 2.2223112e-38
0.37874565 0.069745682 -0.92700011 7.3721471e-40
0.38051134 0.069745682 -0.92700011 1.1059972e-39
0.3840428 0.069745675 -0.92700011 8.2657412e-40
0.3858085 0.069745675 -0.92700011 1.0761972e-42
0.34166566 0.071511403 -0.92700011 1.2007771e-38
0.34343135 0.071511403 -0.92700011 2.1023153e-38
0.34519708 0.071511403 -0.92700011 2.2682649e-38
0.37697992 0.071511403 -0.92700011 4.6062782e-40
0.37874565 0.071511403 -0.92700011 4.6062782e-40
0.38051134 0.071511403 -0.92700011 6.4501908e-40
0.3840428 0.071511395 -0.92700011 5.510354e-40
0.3858085 0.071511395 -0.92700011 7.1886611e-43
0.34166566 0.073277116 -0.92700011 1.2191043e-38
0.34519708 0.073277116 -0.92700011 2.2038724e-38
0.34696278 0.075042829 -0.92700011 1.9266799e-38
0.37521419 0.075042829 -0.92700011 6.4428761e-40
0.37697992 0.075042829 -0.92700011 6.4428761e-40
0.37874565 0.075042829 -0.92700011 7.3648604e-40
0.38051134 0.075042829 -0.92700011 5.5209478e-40
0.38227707 0.075042829 -0.92700011 5.5244791e-40
0.3840428 0.075042821 -0.92700011 3.6805945e-40
0.3858085 0.075042821 -0.92700011 7.2166871e-43
0.34519708 0.076808542 -0.92700011 2.2038007e-38
0.34696278 0.076808542 -0.92700011 1.7889266e-38
0.37521419 0.076808542 -0.92700011 5.5209198e-40
0.38227707 0.076808542 -0.92700011 6.4428761e-40
0.34872848 0.078574263 -0.92700011 9.1915931e-40
0.35049421 0.078574263 -0.92700011 1.2611686e-44
0.35225993 0.078574263 -0.92700011 6.4538202e-40
0.35402563 0.078574263 -0.92700011 1.1038617e-39
0.35579136 0.078574263 -0.92700011 9.194704e-40
0.37344852 0.078574263 -0.92700011 6.4466876e-40
0.37521419 0.078574263 -0.92700011 4.6062782e-40
0.34872848 0.080339968 -0.92700011 2.5994087e-42
0.35049421 0.080339968 -0.92700011 2.8025969e-45
0.35225993 0.080339968 -0.92700011 2.4896449e-39
0.35402563 0.080339968 -0.92700011 3.1343011e-39
0.35755709 0.080339968 -0.92700011 2.8602323e-39
0.35932279 0.080339968 -0.92700011 2.8602323e-39
0.37344852 0.080339968 -0.92700011 2.030822e-39
0.34872848 0.082105689 -0.92700011 8.2696087e-40
0.35049421 0.082105689 -0.92700011 0
0.35225993 0.082105689 -0.92700011 3.0424558e-39
0.35402563 0.082105689 -0.92700011 3.5948855e-39
0.35579136 0.082105689 -0.92700011 3.5948855e-39
0.35755709 0.082105689 -0.92700011 3.3201091e-39
0.35932279 0.082105689 -0.92700011 3.3201091e-39
0.35225993 0.083871402 -0.92700011 2.9506231e-39
0.35402563 0.083871402 -0.92700011 3.6867336e-39
0.35579136 0.083871402 -0.92700011 3.6867336e-39
0.35932279 0.083871402 -0.92700011 3.8711248e-39
0.35225993 0.085637115 -0.92700011 2.9502728e-39
0.35402563 0.085637115 -0.92700011 3.3172448e-39
0.35932279 0.085637115 -0.92700011 3.4112383e-39
0.35225993 0.087402828 -0.92700011 2.3052537e-39
0.35402563 0.087402828 -0.92700011 3.1332095e-39
0.35579136 0.087402828 -0.92700011 2.9488182e-39
0.35755709 0.087402828 -0.92700011 2.6736733e-39
0.35049421 0.089168549 -0.92700011 1.2611686e-44
0.35225993 0.089168549 -0.92700011 2.2127077e-39
0.35755709 0.089168549 -0.92700011 2.305597e-39
0.35049421 0.090934254 -0.92700011 5.6051939e-45
0.35225993 0.090934254 -0.92700011 2.3974521e-39
0.35049421 0.092699975 -0.92700011 9.2198432e-41
0.35049421 0.094465688 -0.92700011 9.2198432e-41
0.37874565 0.097997114 -0.92700011 2.6733229e-39
0.37874565 0.099762835 -0.92700011 2.2126951e-39
0.38051134 0.099762835 -0.92700011 2.3970864e-39
0.37874565 0.10152854 -0.92700011 7.3721471e-40
0.38051134 0.10152854 -0.92700011 6.4501908e-40
0.38227707 0.10152854 -0.92700011 6.4464354e-40
0.37874565 0.10329426 -0.92700011 9.1946759e-40
0.38051134 0.10329426 -0.92700011 8.2727196e-40
0.38227707 0.10329426 -0.92700011 5.5244791e-40
0.37697992 0.10505997 -0.92700011 2.7633508e-39
0.37874565 0.10505997 -0.92700011 1.5644713e-39
0.37697992 0.10682569 -0.92700011 3.2257218e-39
0.37697992 0.1085914 -0.92700011 6.4465054e-40
0.37874565 0.1085914 -0.92700011 7.3578259e-40
0.32930565 -0.022071457 -0.92700005 2.6733229e-39
0.33107138 -0.022071458 -0.92700005 2.2123448e-39
0.33283705 -0.020305745 -0.92700005 2.1194429e-39
0.33460277 -0.020305745 -0.92700005 2.0272473e-39
0.3363685 -0.020305745 -0.92700005 1.9357579e-39
0.3381342 -0.01854003 -0.92700005 2.1204995e-39
0.33989993 -0.015008601 -0.92700005 2.8573639e-39
0.33989993 -0.013242887 -0.92700005 2.6722636e-39
0.33989993 0.071511403 -0.92700005 9.442958e-40
0.33989993 0.073277116 -0.92700005 7.587849e-40
0.32823992 -0.023760028 -0.92400002 2.9499098e-39
0.32999989 -0.023760028 -0.92400002 2.3045404e-39
0.33175993 -0.02376003 -0.92400002 1.8435623e-39
0.33175993 -0.02200003 -0.92400002 2.0279535e-39
0.33351994 -0.02200003 -0.92400002 1.9357579e-39
0.33527991 -0.02200003 -0.92400002 1.8439126e-39
0.33703992 -0.02200003 -0.92400002 1.9361082e-39
0.33879992 -0.02200003 -0.92400002 2.0283039e-39
0.39863992 -0.022000035 -0.92400008 2.5793294e-39
0.40039992 -0.022000035 -0.92400008 2.8559163e-39
0.33703992 -0.020240031 -0.92400002 1.9357579e-39
0.33879992 -0.020240031 -0.92400002 1.9357579e-39
0.39863992 -0.020240037 -0.92400008 2.5793294e-39
0.40039992 -0.020240037 -0.92400008 2.6715251e-39
0.33879992 -0.018480031 -0.92400002 2.3048907e-39
0.33879992 -0.016720029 -0.92400002 2.5811273e-39
0.34055993 -0.01496003 -0.92400002 1.6815582e-44
0.34055993 -0.013200031 -0.92400002 2.5223372e-44
0.38807991 -0.013200034 -0.92400008 4.328894e-39
0.38983992 -0.013200035 -0.92400008 4.5132853e-39
0.39159992 -0.013200035 -0.92400008 3.9593646e-39
0.39335993 -0.013200035 -0.92400008 3.4983865e-39
0.38983992 -0.011440034 -0.92400008 4.8842202e-39
0.38983992 -0.0096800346 -0.92400008 5.2540593e-39
0.38983992 -0.0079200342 -0.92400008 5.2540593e-39
0.38983992 -0.0061600343 -0.92400008 6.2660532e-39
0.37927991 -0.004400033 -0.92400008 6.4501908e-40
0.38103992 -0.0044000335 -0.92400008 6.4502889e-40
0.3757599 -0.0026400329 -0.92400008 7.3613291e-40
0.37751991 -0.0026400331 -0.92400008 9.208773e-40
0.37927991 -0.0026400331 -0.92400008 1.4740511e-39
0.38103992 -0.0026400334 -0.92400008 1.6574152e-39
0.37751991 -0.00088003301 -0.92400008 1.0130729e-39
0.37927991 -0.00088003319 -0.92400008 1.9350292e-39
0.38103992 -0.0008800333 -0.92400008 3.4087398e-39
0.38279992 -0.00088003348 -0.92400008 2.118001e-39
0.37751991 0.000879967 -0.92400008 1.0120037e-39
0.37927991 0.00087996683 -0.92400008 1.6573731e-39
0.38103992 0.00087996671 -0.92400008 2.0272122e-39
0.38279992 0.00087996654 -0.92400008 1.9350166e-39
0.38279992 0.0026399666 -0.92400008 3.6806926e-40
0.38455993 0.0026399666 -0.92400008 5.5317378e-40
0.38631994 0.0026399663 -0.92400008 0
0.38807991 0.0026399661 -0.92400008 1.6584297e-39
0.38279992 0.0043999664 -0.92400008 4.5920551e-40
0.38455993 0.0043999664 -0.92400008 1.8439406e-40
0.37399992 0.0061599677 -0.92400008 7.3613291e-40
0.38103992 0.0061599668 -0.92400008 2.1194079e-39
0.38279992 0.0061599668 -0.92400008 1.3818428e-39
0.38455993 0.0061599668 -0.92400008 4.6171663e-40
0.34759992 0.007919969 -0.92400008 5.4373968e-39
0.37399992 0.0079199672 -0.92400008 5.5247313e-40
0.3757599 0.0079199672 -0.92400008 3.6808187e-40
0.37751991 0.0079199672 -0.92400008 1.1960573e-39
0.37927991 0.0079199662 -0.92400008 5.8058388e-39
0.38103992 0.0079199662 -0.92400008 5.3461891e-39
0.38279992 0.0079199662 -0.92400008 1.8428084e-39
0.38455993 0.0079199662 -0.92400008 1.1056595e-39
0.38631994 0.0079199662 -0.92400008 2.8025969e-44
0.38807991 0.0079199662 -0.92400008 7.3863143e-40
0.34759992 0.0096799694 -0.92400008 3.5978128e-39
0.37399992 0.0096799675 -0.92400008 6.4358696e-40
0.3757599 0.0096799675 -0.92400008 4.591957e-40
0.37751991 0.0096799675 -0.92400008 1.6563166e-39
0.37927991 0.0096799666 -0.92400008 6.7270762e-39
0.38103992 0.0096799666 -0.92400008 6.725965e-39
0.38279992 0.0096799666 -0.92400008 2.3927704e-39
0.38455993 0.0096799666 -0.92400008 1.4722756e-39
0.38631994 0.0096799666 -0.92400008 3.67363e-40
0.38807991 0.0096799666 -0.92400008 9.2302269e-40
0.38983992 0.0096799657 -0.92400008 9.312825e-39
0.34759992 0.011439969 -0.92400008 3.6849707e-39
0.3493599 0.011439969 -0.92400008 1.2611686e-44
0.37399992 0.011439967 -0.92400008 5.5247313e-40
0.3757599 0.011439967 -0.92400008 5.5247313e-40
0.37751991 0.011439967 -0.92400008 1.9332538e-39
0.37927991 0.011439966 -0.92400008 6.2664484e-39
0.38103992 0.011439966 -0.92400008 6.1741855e-39
0.38279992 0.011439966 -0.92400008 2.0254032e-39
0.38455993 0.011439966 -0.92400008 1.1060098e-39
0.38631994 0.011439966 -0.92400008 2.1019477e-44
0.38807991 0.011439966 -0.92400008 9.2302269e-40
0.38983992 0.011439965 -0.92400008 9.7738032e-39
0.34759992 0.01319997 -0.92400008 2.767699e-39
0.3493599 0.01319997 -0.92400008 2.755205e-40
0.37399992 0.013199968 -0.92400008 2.7658689e-40
0.3757599 0.013199968 -0.92400008 3.6878252e-40
0.37751991 0.013199968 -0.92400008 2.766023e-40
0.37927991 0.013199967 -0.92400008 9.2197171e-40
0.38103992 0.013199967 -0.92400008 8.29472e-40
0.38279992 0.013199967 -0.92400008 6.8663625e-44
0.38455993 0.013199967 -0.92400008 3.5873241e-43
0.38631994 0.013199967 -0.92400008 3.5873241e-43
0.38807991 0.013199967 -0.92400008 4.6420254e-40
0.38983992 0.013199966 -0.92400008 9.4993743e-39
0.37399992 0.014959968 -0.92400008 2.7586802e-40
0.3757599 0.014959968 -0.92400008 5.5245491e-40
0.37751991 0.014959968 -0.92400008 6.4393728e-40
0.37927991 0.014959967 -0.92400008 6.4393728e-40
0.38103992 0.014959967 -0.92400008 6.4362339e-40
0.38279992 0.014959967 -0.92400008 1.8372144e-40
0.38455993 0.014959967 -0.92400008 9.2194229e-41
0.38631994 0.014959967 -0.92400008 0
0.38807991 0.014959967 -0.92400008 2.7981128e-40
0.38983992 0.014959966 -0.92400008 9.6837627e-39
0.39159992 0.014959966 -0.92400008 1.2169097e-38
0.37399992 0.016719965 -0.92400008 7.3613291e-40
0.3757599 0.016719965 -0.92400008 9.2052417e-40
0.37751991 0.016719965 -0.92400008 9.208773e-40
0.37927991 0.016719965 -0.92400008 2.1194205e-39
0.38103992 0.016719965 -0.92400008 2.7637207e-39
0.38279992 0.016719965 -0.92400008 2.0261557e-39
0.38455993 0.016719965 -0.92400008 1.0141519e-39
0.38631994 0.016719965 -0.92400008 9.219563e-41
0.38807991 0.016719965 -0.92400008 2.7981408e-40
0.38983992 0.016719965 -0.92400008 9.6837683e-39
0.3493599 0.018479971 -0.92400008 9.2198432e-41
0.38103992 0.018479967 -0.92400008 4.5160921e-39
0.38279992 0.018479967 -0.92400008 2.3034208e-39
0.38455993 0.018479967 -0.92400008 1.7506604e-39
0.38631994 0.018479967 -0.92400008 1.8369341e-40
0.38807991 0.018479967 -0.92400008 2.7981408e-40
0.38983992 0.018479967 -0.92400008 9.775964e-39
0.34759992 0.020239972 -0.92400008 1.0160058e-39
0.38279992 0.020239968 -0.92400008 3.7782356e-39
0.38455993 0.020239968 -0.92400008 1.8460804e-39
0.38631994 0.020239968 -0.92400008 1.4475413e-42
0.38279992 0.021999966 -0.92400008 4.3296045e-39
0.38455993 0.021999966 -0.92400008 1.5694935e-39
0.38631994 0.021999966 -0.92400008 1.0874076e-42
0.38279992 0.023759967 -0.92400008 4.3440252e-44
0.38455993 0.023759967 -0.92400008 3.5873241e-43
0.38631994 0.023759967 -0.92400008 9.2911693e-41
0.34055993 0.025519971 -0.92400002 9.0488638e-39
0.34583992 0.025519971 -0.92400008 2.0094743e-38
0.37399992 0.032559965 -0.92400008 4.6028731e-40
0.3757599 0.032559965 -0.92400008 7.368742e-40
0.37047991 0.036079969 -0.92400008 3.6775116e-40
0.37223992 0.036079969 -0.92400008 9.1881739e-41
0.37399992 0.036079969 -0.92400008 1.8439406e-40
0.3757599 0.036079969 -0.92400008 1.8439406e-40
0.36871991 0.037839968 -0.92400008 2.8617023e-39
0.37047991 0.037839968 -0.92400008 1.6613416e-39
0.37223992 0.037839968 -0.92400008 1.8621155e-40
0.37047991 0.039599966 -0.92400008 4.0551139e-39
0.33879992 0.041359972 -0.92400002 8.5246731e-40
0.33879992 0.043119971 -0.92400002 9.4538181e-40
0.33879992 0.044879969 -0.92400002 8.5101837e-40
0.33879992 0.046639971 -0.92400002 8.5283445e-40
0.33879992 0.04839997 -0.92400002 6.6623895e-40
0.34055993 0.051919971 -0.92400002 1.2558063e-38
0.34055993 0.053679973 -0.92400002 1.2008153e-38
0.34055993 0.055439971 -0.92400002 1.2559147e-38
0.34055993 0.05719997 -0.92400002 1.2192897e-38
0.34231991 0.05719997 -0.92400008 2.0746211e-38
0.34407991 0.05719997 -0.92400008 2.2313513e-38
0.34583992 0.05719997 -0.92400008 1.8344484e-38
0.34231991 0.058959972 -0.92400008 2.0379587e-38
0.34407991 0.058959972 -0.92400008 2.1854694e-38
0.34583992 0.058959972 -0.92400008 1.7795992e-38
0.34231991 0.060719971 -0.92400008 2.09306e-38
0.34407991 0.060719971 -0.92400008 2.268229e-38
0.34583992 0.060719971 -0.92400008 1.8621787e-38
0.34583992 0.062479973 -0.92400008 1.7980383e-38
0.34583992 0.064239971 -0.92400008 1.8898374e-38
0.37751991 0.064239971 -0.92400008 2.7695263e-40
0.37927991 0.064239971 -0.92400008 1.84757e-40
0.38103992 0.064239971 -0.92400008 5.5174165e-40
0.38279992 0.064239971 -0.92400008 4.5954602e-40
0.34583992 0.06599997 -0.92400008 1.8348444e-38
0.3757599 0.06599997 -0.92400008 7.3613291e-40
0.37751991 0.06599997 -0.92400008 8.2832854e-40
0.37927991 0.06599997 -0.92400008 2.8566324e-39
0.38103992 0.06599997 -0.92400008 2.6726167e-39
0.34583992 0.067759968 -0.92400008 1.9083128e-38
0.3757599 0.067759968 -0.92400008 7.3542666e-40
0.37751991 0.067759968 -0.92400008 1.0120135e-39
0.37927991 0.067759968 -0.92400008 3.8700781e-39
0.34583992 0.069519974 -0.92400008 1.853355e-38
0.3757599 0.069519974 -0.92400008 6.4501908e-40
0.34583992 0.071279973 -0.92400008 1.9358993e-38
0.37399992 0.071279973 -0.92400008 4.6062782e-40
0.34583992 0.073039971 -0.92400008 1.8626461e-38
0.34759992 0.073039971 -0.92400008 2.5910009e-42
0.35287991 0.073039971 -0.92400008 7.3615814e-40
0.35463992 0.073039971 -0.92400008 8.2835377e-40
0.37047991 0.073039971 -0.92400008 4.6062782e-40
0.37223992 0.073039971 -0.92400008 4.6062782e-40
0.34759992 0.07479997 -0.92400008 8.2767974e-40
0.3493599 0.07479997 -0.92400008 9.2198432e-41
0.35111991 0.07479997 -0.92400008 5.5317658e-40
0.35287991 0.07479997 -0.92400008 1.0120135e-39
0.35463992 0.07479997 -0.92400008 9.1981792e-40
0.37047991 0.07479997 -0.92400008 7.3648604e-40
0.37223992 0.07479997 -0.92400008 6.4429041e-40
0.34759992 0.076559968 -0.92400008 2.6008099e-42
0.3493599 0.076559968 -0.92400008 5.6051939e-45
0.35111991 0.076559968 -0.92400008 5.5353952e-40
0.35287991 0.076559968 -0.92400008 1.2867984e-39
0.35463992 0.076559968 -0.92400008 1.1024071e-39
0.37047991 0.076559968 -0.92400008 6.4393728e-40
0.37223992 0.076559968 -0.92400008 6.4393728e-40
0.3757599 0.076559968 -0.92400008 6.4428761e-40
0.37751991 0.076559968 -0.92400008 5.5174165e-40
0.37927991 0.076559968 -0.92400008 5.5174165e-40
0.38279992 0.076559968 -0.92400008 5.5209198e-40
0.38455993 0.076559961 -0.92400008 7.1746481e-43
0.38631994 0.076559961 -0.92400008 3.5873241e-43
0.35639989 0.078319967 -0.92400008 7.3722452e-40
0.35815993 0.078319967 -0.92400008 7.3722452e-40
0.35991994 0.078319967 -0.92400008 4.6171663e-40
0.36167991 0.078319967 -0.92400008 3.69521e-40
0.36343992 0.078319967 -0.92400008 3.6879793e-40
0.36519992 0.078319967 -0.92400008 3.6879793e-40
0.37047991 0.078319967 -0.92400008 5.5247313e-40
0.3757599 0.078319967 -0.92400008 4.6062782e-40
0.37751991 0.078319967 -0.92400008 3.6879793e-40
0.37927991 0.078319967 -0.92400008 3.6879793e-40
0.38103992 0.078319967 -0.92400008 6.4501908e-40
0.38279992 0.078319967 -0.92400008 6.4501908e-40
0.38455993 0.078319959 -0.92400008 1.8439406e-40
0.38631994 0.078319959 -0.92400008 2.8025969e-45
0.35991994 0.080079965 -0.92400008 2.8602323e-39
0.36167991 0.080079965 -0.92400008 2.6758411e-39
0.36343992 0.080079965 -0.92400008 2.2148629e-39
0.36519992 0.080079965 -0.92400008 2.2148629e-39
0.36695993 0.080079965 -0.92400008 2.4914526e-39
0.36871991 0.080079965 -0.92400008 2.1226701e-39
0.37047991 0.080079965 -0.92400008 2.030822e-39
0.37399992 0.080079965 -0.92400008 2.489282e-39
0.3757599 0.080079965 -0.92400008 2.5814776e-39
0.37751991 0.080079965 -0.92400008 2.3992542e-39
0.37927991 0.080079965 -0.92400008 2.2148629e-39
0.38103992 0.080079965 -0.92400008 2.1230176e-39
0.38279992 0.080079965 -0.92400008 1.7542351e-39
0.38455993 0.080079958 -0.92400008 5.5532197e-40
0.35991994 0.081839971 -0.92400008 3.3201091e-39
0.36167991 0.081839971 -0.92400008 3.1357178e-39
0.36343992 0.081839971 -0.92400008 3.2275533e-39
0.36519992 0.081839971 -0.92400008 3.1353577e-39
0.36695993 0.081839971 -0.92400008 2.9513265e-39
0.36871991 0.081839971 -0.92400008 2.8591309e-39
0.37047991 0.081839971 -0.92400008 2.4925064e-39
0.37223992 0.081839971 -0.92400008 2.4925064e-39
0.37399992 0.081839971 -0.92400008 2.9509664e-39
0.3757599 0.081839971 -0.92400008 3.1353577e-39
0.37751991 0.081839971 -0.92400008 3.0435222e-39
0.37927991 0.081839971 -0.92400008 3.0435222e-39
0.38103992 0.081839971 -0.92400008 2.8591183e-39
0.38279992 0.081839971 -0.92400008 2.2137489e-39
0.38455993 0.081839964 -0.92400008 1.1066979e-39
0.35991994 0.08359997 -0.92400008 3.5023423e-39
0.36167991 0.08359997 -0.92400008 3.594538e-39
0.36343992 0.08359997 -0.92400008 3.3190427e-39
0.36519992 0.08359997 -0.92400008 3.4112383e-39
0.36695993 0.08359997 -0.92400008 2.9509664e-39
0.36871991 0.08359997 -0.92400008 2.9509664e-39
0.37047991 0.08359997 -0.92400008 2.9509664e-39
0.37223992 0.08359997 -0.92400008 3.043162e-39
0.37399992 0.08359997 -0.92400008 3.2275533e-39
0.3757599 0.08359997 -0.92400008 3.5041402e-39
0.38279992 0.08359997 -0.92400008 1.9361082e-39
0.35991994 0.085359976 -0.92400008 3.3190427e-39
0.36167991 0.085359976 -0.92400008 3.3190427e-39
0.37047991 0.085359976 -0.92400008 2.9509664e-39
0.37223992 0.085359976 -0.92400008 3.043162e-39
0.37399992 0.085359976 -0.92400008 3.0435222e-39
0.35815993 0.087119974 -0.92400008 2.9502602e-39
0.35991994 0.087119974 -0.92400008 2.9502602e-39
0.37047991 0.087119974 -0.92400008 2.6743795e-39
0.37223992 0.087119974 -0.92400008 2.8587708e-39
0.37399992 0.087119974 -0.92400008 2.8580645e-39
0.35287991 0.088879973 -0.92400008 2.7637207e-39
0.35463992 0.088879973 -0.92400008 2.6715251e-39
0.35815993 0.088879973 -0.92400008 2.5821839e-39
0.37047991 0.088879973 -0.92400008 2.5814776e-39
0.37223992 0.088879973 -0.92400008 2.5814776e-39
0.37399992 0.088879973 -0.92400008 2.5814776e-39
0.3757599 0.088879973 -0.92400008 2.5814776e-39
0.38279992 0.088879973 -0.92400008 2.3059571e-39
0.35287991 0.090639971 -0.92400008 2.948112e-39
0.35463992 0.090639971 -0.92400008 2.8559163e-39
0.35639989 0.090639971 -0.92400008 2.5821839e-39
0.37047991 0.090639971 -0.92400008 2.5814776e-39
0.37223992 0.090639971 -0.92400008 2.5814776e-39
0.37399992 0.090639971 -0.92400008 2.5814776e-39
0.3757599 0.090639971 -0.92400008 2.5814776e-39
0.35111991 0.09239997 -0.92400008 2.4892848e-39
0.35287991 0.09239997 -0.92400008 2.9484623e-39
0.35463992 0.09239997 -0.92400008 2.8562667e-39
0.35639989 0.09239997 -0.92400008 2.6743795e-39
0.37047991 0.09239997 -0.92400008 2.9484623e-39
0.37223992 0.09239997 -0.92400008 2.9484623e-39
0.37399992 0.09239997 -0.92400008 2.9484623e-39
0.3757599 0.09239997 -0.92400008 2.8562667e-39
0.35111991 0.094159976 -0.92400008 2.8580673e-39
0.35287991 0.094159976 -0.92400008 3.2250492e-39
0.35463992 0.094159976 -0.92400008 3.2250492e-39
0.37047991 0.094159976 -0.92400008 3.2250492e-39
0.37223992 0.094159976 -0.92400008 3.3172448e-39
0.37399992 0.094159976 -0.92400008 3.3172448e-39
0.3757599 0.094159976 -0.92400008 3.2250492e-39
0.37751991 0.094159976 -0.92400008 3.5016361e-39
0.37927991 0.094159976 -0.92400008 3.5016361e-39
0.38103992 0.094159976 -0.92400008 2.9484623e-39
0.38279992 0.094159976 -0.92400008 2.1187016e-39
0.35463992 0.095919974 -0.92400008 3.0424558e-39
0.37047991 0.095919974 -0.92400008 2.9502602e-39
0.37223992 0.095919974 -0.92400008 2.9502602e-39
0.37399992 0.095919974 -0.92400008 2.9502602e-39
0.3757599 0.095919974 -0.92400008 3.0424558e-39
0.37751991 0.095919974 -0.92400008 3.1343011e-39
0.37927991 0.095919974 -0.92400008 3.0421055e-39
0.38103992 0.095919974 -0.92400008 3.1335598e-39
0.38279992 0.095919974 -0.92400008 2.6725817e-39
0.35639989 0.097679973 -0.92400008 2.7651248e-39
0.35815993 0.097679973 -0.92400008 2.8573204e-39
0.37047991 0.097679973 -0.92400008 2.3967361e-39
0.37223992 0.097679973 -0.92400008 2.4889317e-39
0.37399992 0.097679973 -0.92400008 2.5814776e-39
0.3757599 0.097679973 -0.92400008 2.5814776e-39
0.37927991 0.097679973 -0.92400008 2.6733229e-39
0.38103992 0.097679973 -0.92400008 1.5698438e-39
0.38279992 0.097679973 -0.92400008 1.3854526e-39
0.38455993 0.097679965 -0.92400008 1.1063476e-39
0.38631994 0.097679965 -0.92400008 0
0.38807991 0.097679965 -0.92400008 1.1107224e-39
0.35815993 0.099439971 -0.92400008 2.2119538e-39
0.37223992 0.099439971 -0.92400008 1.569146e-39
0.37399992 0.099439971 -0.92400008 1.7538848e-39
0.3757599 0.099439971 -0.92400008 1.7538848e-39
0.38279992 0.099439971 -0.92400008 1.3818428e-39
0.38455993 0.099439964 -0.92400008 6.4501908e-40
0.38631994 0.099439964 -0.92400008 9.1845305e-41
0.37223992 0.10119997 -0.92400008 3.6987413e-40
0.37399992 0.10119997 -0.92400008 5.5462132e-40
0.3757599 0.10119997 -0.92400008 6.4681695e-40
0.37223992 0.10295997 -0.92400008 2.3967487e-39
0.37399992 0.10295997 -0.92400008 1.9357579e-39
0.3757599 0.10295997 -0.92400008 1.2903885e-39
0.37399992 0.10471997 -0.92400008 7.188741e-39
0.37399992 0.10647997 -0.92400008 5.2539948e-39
0.37399992 0.10823997 -0.92400008 2.7586802e-40
0.37399992 0.10999997 -0.92400008 8.2727196e-40
0.3757599 0.10999997 -0.92400008 7.3507633e-40
0.37751991 0.10999997 -0.92400008 6.4466876e-40
0.37223992 0.11175997 -0.92400008 7.3756504e-40
0.37399992 0.11175997 -0.92400008 7.3686439e-40
0.3757599 0.11175997 -0.92400008 7.3686439e-40
0.37751991 0.11175997 -0.92400008 6.4501908e-40
0.36089706 -0.023708604 -0.92200011 1.5655278e-39
0.36265326 -0.023708604 -0.92200011 1.4740385e-39
0.36440948 -0.023708604 -0.92200011 1.3818428e-39
0.36616564 -0.023708604 -0.92200011 1.7499191e-39
0.37143421 -0.023708604 -0.92200011 1.5658838e-39
0.39777705 -0.023708608 -0.92200011 2.6718754e-39
0.39953324 -0.023708608 -0.92200011 2.6718754e-39
0.36616564 -0.021952413 -0.92200011 3.871485e-39
0.37845898 -0.021952415 -0.92200011 2.0283039e-39
0.35914087 -0.020196224 -0.92200011 4.1459041e-39
0.38899612 -0.020196225 -0.92200011 1.1982055e-39
0.38899612 -0.018440034 -0.92200011 2.3988842e-39
0.39075229 -0.018440034 -0.92200011 2.6718754e-39
0.39075229 -0.016683845 -0.92200011 3.4076286e-39
0.39250851 -0.016683845 -0.92200011 3.1310417e-39
0.3942647 -0.016683847 -0.92200011 2.6718754e-39
0.39602089 -0.016683847 -0.92200011 2.764071e-39
0.39075229 -0.014927654 -0.92200011 3.8668088e-39
0.39250851 -0.014927654 -0.92200011 3.3136351e-39
0.3942647 -0.014927654 -0.92200011 3.1303354e-39
0.39602089 -0.014927654 -0.92200011 2.8537485e-39
0.38723993 -0.011415272 -0.92200011 3.685677e-39
0.38723993 -0.0096590817 -0.92200011 3.6867336e-39
0.37494659 -0.0079028895 -0.92200011 4.6097815e-40
0.37670279 -0.0079028895 -0.92200011 4.6097815e-40
0.37845898 -0.0079028904 -0.92200011 3.6878252e-40
0.38021517 -0.0079028904 -0.92200011 5.5209198e-40
0.38197133 -0.0079028904 -0.92200011 5.5209198e-40
0.38372755 -0.0079028904 -0.92200011 5.5247313e-40
0.38548374 -0.0079028904 -0.92200011 4.602775e-40
0.38723993 -0.0079028904 -0.92200011 3.4101467e-39
0.37494659 -0.0061466997 -0.92200011 4.6061521e-40
0.37670279 -0.0061467001 -0.92200011 3.6878252e-40
0.37845898 -0.0061467001 -0.92200011 3.6878252e-40
0.38021517 -0.0061467001 -0.92200011 2.7658689e-40
0.38197133 -0.0061467006 -0.92200011 3.6878252e-40
0.38372755 -0.0061467006 -0.92200011 2.7661492e-40
0.38548374 -0.0061467006 -0.92200011 1.8441929e-40
0.38723993 -0.0061467011 -0.92200011 3.7767712e-39
0.34509134 -0.0043905065 -0.92200011 2.2957794e-38
0.36792183 -0.0043905084 -0.92200011 9.2052417e-40
0.36967802 -0.0043905084 -0.92200011 1.1038617e-39
0.37494659 -0.0043905089 -0.92200011 3.6914826e-40
0.37670279 -0.0043905093 -0.92200011 4.6062782e-40
0.38197133 -0.0043905098 -0.92200011 6.4502889e-40
0.38372755 -0.0043905098 -0.92200011 3.6879793e-40
0.38548374 -0.0043905098 -0.92200011 2.766023e-40
0.38723993 -0.0043905103 -0.92200011 3.3172448e-39
0.38899612 -0.0043905103 -0.92200011 5.7143312e-39
0.36792183 -0.0026343181 -0.92200011 3.8700683e-39
0.38197133 -0.0026343192 -0.92200011 1.3808283e-39
0.38372755 -0.0026343195 -0.92200011 8.2906002e-40
0.38548374 -0.0026343197 -0.92200011 2.7588624e-40
0.38723993 -0.0026343197 -0.92200011 2.9484623e-39
0.38899612 -0.0026343199 -0.92200011 4.9767661e-39
0.36792183 -0.00087812747 -0.92200011 3.685677e-39
0.3731904 -0.00087812787 -0.92200011 6.4393728e-40
0.37494659 -0.00087812805 -0.92200011 7.3613291e-40
0.38372755 -0.00087812881 -0.92200011 6.4718689e-40
0.38548374 -0.00087812898 -0.92200011 1.0972167e-42
0.38723993 -0.00087812915 -0.92200011 1.8439126e-39
0.38899612 -0.00087812927 -0.92200011 7.1912591e-39
0.34333515 0.00087806524 -0.92200011 2.3046045e-38
0.34509134 0.00087806513 -0.92200011 2.3324062e-38
0.36792183 0.00087806309 -0.92200011 3.4998242e-39
0.3731904 0.00087806268 -0.92200011 6.4501908e-40
0.37494659 0.00087806251 -0.92200011 6.4501908e-40
0.38372755 0.00087806175 -0.92200011 5.5499126e-40
0.38548374 0.00087806158 -0.92200011 3.7694929e-43
0.38723993 0.0008780614 -0.92200011 1.6584297e-39
0.38899612 0.00087806128 -0.92200011 8.1121238e-39
0.34333515 0.0026342559 -0.92200011 2.0936339e-38
0.3731904 0.0026342534 -0.92200011 4.6062782e-40
0.37494659 0.0026342531 -0.92200011 6.4501908e-40
0.37670279 0.0026342531 -0.92200011 1.0120037e-39
0.37845898 0.0026342529 -0.92200011 9.1980811e-40
0.38021517 0.0026342527 -0.92200011 3.6806926e-40
0.3731904 0.0043904437 -0.92200011 4.6062782e-40
0.37494659 0.0043904437 -0.92200011 4.6062782e-40
0.37670279 0.0043904432 -0.92200011 4.6026489e-40
0.37845898 0.0043904432 -0.92200011 5.5246052e-40
0.38021517 0.0043904432 -0.92200011 6.4359677e-40
0.38548374 0.0043904427 -0.92200011 2.8025969e-45
0.38723993 0.0043904423 -0.92200011 1.5665872e-39
0.36967802 0.0061466349 -0.92200011 1.0141519e-39
0.37143421 0.0061466345 -0.92200011 6.4536941e-40
0.37494659 0.0061466345 -0.92200011 7.3613291e-40
0.37670279 0.006146634 -0.92200011 7.3578259e-40
0.37845898 0.006146634 -0.92200011 2.0265214e-39
0.38548374 0.0061466335 -0.92200011 1.6815582e-44
0.38723993 0.0061466331 -0.92200011 1.0148554e-39
0.36967802 0.0079028243 -0.92200011 2.7626095e-39
0.37143421 0.0079028243 -0.92200011 1.2874906e-39
0.36967802 0.0096590156 -0.92200011 3.9611625e-39
0.37143421 0.0096590156 -0.92200011 1.2874906e-39
0.36967802 0.011415206 -0.92200011 3.7767348e-39
0.37143421 0.011415206 -0.92200011 1.4718791e-39
0.36967802 0.013171396 -0.92200011 4.5991176e-40
0.37143421 0.013171396 -0.92200011 3.6771613e-40
0.37143421 0.014927587 -0.92200011 3.6736861e-40
0.37143421 0.01668378 -0.92200011 8.2941034e-40
0.35035992 0.018439971 -0.92200011 2.7658969e-40
0.37143421 0.018439969 -0.92200011 9.2265975e-40
0.3731904 0.018439967 -0.92200011 7.3615814e-40
0.37494659 0.018439967 -0.92200011 6.4396251e-40
0.37670279 0.018439967 -0.92200011 3.8710814e-39
0.37845898 0.018439967 -0.92200011 4.9774206e-39
0.34860376 0.020196162 -0.92200011 9.2198432e-41
0.37143421 0.02019616 -0.92200011 6.4429041e-40
0.3731904 0.020196158 -0.92200011 2.766023e-40
0.37494659 0.020196158 -0.92200011 3.6879793e-40
0.37670279 0.020196158 -0.92200011 4.7898469e-39
0.37845898 0.020196158 -0.92200011 7.279129e-39
0.38021517 0.020196158 -0.92200011 6.6363001e-39
0.34684756 0.021952352 -0.92200011 1.7478158e-39
0.36967802 0.02195235 -0.92200011 4.0551139e-39
0.37143421 0.02195235 -0.92200011 1.0127016e-39
0.3731904 0.021952348 -0.92200011 3.6917068e-40
0.37845898 0.021952348 -0.92200011 6.5447463e-39
0.38021517 0.021952348 -0.92200011 6.450104e-39
0.34157896 0.023708543 -0.92200011 1.6965528e-38
0.34333515 0.023708543 -0.92200011 2.2128407e-38
0.34684756 0.023708543 -0.92200011 4.6284468e-40
0.36967802 0.023708541 -0.92200011 3.6879793e-40
0.37143421 0.023708541 -0.92200011 3.6879793e-40
0.3731904 0.023708539 -0.92200011 4.6062782e-40
0.37845898 0.023708539 -0.92200011 3.6913565e-40
0.38021517 0.023708539 -0.92200011 3.6775116e-40
0.34157896 0.025464732 -0.92200011 1.7701285e-38
0.34333515 0.025464732 -0.92200011 2.2587585e-38
0.36967802 0.02546473 -0.92200011 2.766023e-40
0.37143421 0.02546473 -0.92200011 2.766023e-40
0.37845898 0.025464728 -0.92200011 1.8402972e-40
0.38021517 0.025464728 -0.92200011 5.5209198e-40
0.34157896 0.027220923 -0.92200011 1.7519054e-38
0.34333515 0.027220923 -0.92200011 2.2128766e-38
0.34509134 0.027220923 -0.92200011 1.8809774e-38
0.36967802 0.027220922 -0.92200011 3.69521e-40
0.37143421 0.027220922 -0.92200011 3.69521e-40
0.34157896 0.028977115 -0.92200011 1.7886389e-38
0.34333515 0.028977115 -0.92200011 2.2496108e-38
0.34509134 0.028977115 -0.92200011 1.9725964e-38
0.36967802 0.028977113 -0.92200011 2.4885379e-39
0.37143421 0.028977113 -0.92200011 1.1056133e-39
