# .PCD v0.7 - Point Cloud Data file format
VERSION 0.7
FIELDS x y z normal_x normal_y normal_z curvature
SIZE 4 4 4 4 4 4 4
TYPE F F F F F F F
COUNT 1 1 1 1 1 1 1
WIDTH 568
HEIGHT 1
VIEWPOINT 0 0 0 1 0 0 0
POINTS 568
DATA ascii
0.081850424 -0.073110692 -0.7164045 -0.30919984 -0.6503039 -0.70452571 0.043421417
0.083100609 -0.073379993 -0.71667087 -0.32336503 -0.626643 -0.72362787 0.043897063
-0.0047478992 -0.071414538 -0.71533191 0.014958449 -0.96825159 -0.24953979 0.0036958526
-0.003385067 -0.07140401 -0.71533036 0.014943095 -0.96796173 -0.25065985 0.0038004452
-0.0020246997 -0.071398966 -0.71533424 0.014600841 -0.96754229 -0.25231954 0.0038735669
0.0020465099 -0.071334824 -0.71532655 0.0058970484 -0.96629202 -0.2574667 0.0041505094
0.0034050553 -0.071325339 -0.71532518 0.0028559584 -0.9663347 -0.25738069 0.0040779077
0.004764765 -0.071316764 -0.71532398 0.0010608084 -0.96631753 -0.25748131 0.0040219808
0.0061256611 -0.071299672 -0.715321 -0.00017063196 -0.96615422 -0.25811595 0.0039476505
0.0074869464 -0.071273111 -0.71531379 -0.0012160629 -0.96608025 -0.25838012 0.0039573754
0.0088476622 -0.071252525 -0.71530879 -0.003027912 -0.9660359 -0.25854045 0.0039237235
0.0102083 -0.071261622 -0.71531183 -0.0048440173 -0.9658426 -0.25922349 0.0038756416
0.080633819 -0.093218856 -0.71336251 0.74844831 -0.68068856 1.2235305 0.039070465
0.081577048 -0.093608193 -0.71422303 0.7386362 -0.73185861 1.1974961 0.036739975
0.082516551 -0.093908109 -0.71506238 0.7233066 -0.76843452 1.1658971 0.033113997
0.081000589 -0.091422938 -0.71258497 0.73608625 -0.53934419 1.2346015 0.041394845
0.081973329 -0.091898397 -0.71340638 0.7344178 -0.59565836 1.2253159 0.039907239
0.082929909 -0.092317708 -0.71424896 0.73130023 -0.64938182 1.2108046 0.037110329
0.082260966 -0.090183832 -0.71279246 0.7175892 -0.4666433 1.2249986 0.041563898
0.082460605 -0.088514626 -0.71235341 0.6942969 -0.34303287 1.2097468 0.042634349
-0.073281668 -0.086734973 -0.71231586 1.2681538 0.10026092 -0.8195706 0.054607563
0.082585946 -0.086905777 -0.71206826 0.67215329 -0.23326378 1.1939342 0.044115838
-0.073322095 -0.085259721 -0.71226078 1.20303 5.5228978e-05 -0.80682236 0.054226331
0.082636394 -0.085379608 -0.711932 0.64563584 -0.12128061 1.1698623 0.044685613
0.083732143 -0.085887298 -0.71253771 0.6533097 -0.17608018 1.1737612 0.042443577
-0.073278032 -0.08392448 -0.71229464 1.1373942 -0.083354376 -0.78767389 0.054791022
0.08262755 -0.083953932 -0.71193963 0.61786282 -0.016135432 1.1425534 0.044782441
0.083743475 -0.084460407 -0.71250057 0.63002789 -0.063695662 1.1551874 0.043396235
0.08259882 -0.082616575 -0.71199638 0.58769995 0.063869573 1.1032122 0.044200182
0.083726674 -0.083114348 -0.71253306 0.59875315 0.024020415 1.1160953 0.043155339
0.084845282 -0.083590224 -0.71308035 0.60781443 -0.020017637 1.125759 0.042148817
0.085948654 -0.08403936 -0.71364683 0.61366886 -0.062505104 1.1306314 0.040507264
0.08368203 -0.081831798 -0.71263158 0.56926531 0.10094897 1.0781465 0.043521199
0.084816292 -0.082292832 -0.71314692 0.57908803 0.061873514 1.0890753 0.042292926
0.085935466 -0.082740828 -0.71368629 0.58695465 0.023996385 1.0987426 0.040816993
0.083607912 -0.080620028 -0.71280056 0.5411436 0.17299739 1.0416229 0.043631796
0.084747449 -0.081087418 -0.71330696 0.55323803 0.13860354 1.05595 0.042392135
0.085882694 -0.081526235 -0.71381557 0.56161374 0.10350991 1.066654 0.040861592
0.087000042 -0.081941143 -0.71433669 0.56737447 0.069641836 1.0730544 0.04016687
0.083502725 -0.079494357 -0.7130475 0.51182681 0.24297789 1.0014594 0.043911945
0.084667444 -0.079916507 -0.71349829 0.52521813 0.20735326 1.017476 0.042512648
0.085810453 -0.080346569 -0.71398574 0.53490072 0.17494853 1.0289718 0.041459206
0.086947106 -0.080734231 -0.7144711 0.54041451 0.14298008 1.0359278 0.040770277
-0.072452873 -0.078458048 -0.71325094 0.85446304 -0.39229316 -0.67952716 0.046139907
0.083377823 -0.078428812 -0.71334356 0.48196855 0.30804017 0.95887971 0.044032447
0.08455456 -0.078824058 -0.71376413 0.49531618 0.27441102 0.97555625 0.042740192
0.085709259 -0.07923609 -0.71422523 0.50680655 0.24326177 0.98911601 0.041873798
-0.072198302 -0.077566586 -0.7135672 0.80156535 -0.44121909 -0.6558041 0.045850396
0.083229966 -0.077452339 -0.71370918 -0.45515189 -0.3694025 -0.92068088 0.04406311
0.084420674 -0.077802628 -0.71409047 0.466317 0.33885691 0.93397182 0.042960979
0.085590273 -0.078179009 -0.71450418 0.47938439 0.3073402 0.95058417 0.042323869
-0.071923703 -0.07672248 -0.71391529 0.75028217 -0.48738563 -0.63287759 0.045996074
-0.070917465 -0.076109722 -0.71348315 0.69901896 -0.53969908 -0.61091608 0.045995723
0.04737452 -0.072146229 -0.71116006 -0.11009072 -0.91104394 -0.40962374 0.040389527
0.051466499 -0.072242036 -0.71110135 -0.12723847 -0.88983035 -0.44581434 0.043281201
0.0818597 -0.076161124 -0.71375042 -0.41142723 -0.45692834 -0.85855293 0.044800106
0.083070099 -0.076509669 -0.71410543 -0.4255136 -0.42788216 -0.87712467 0.044132639
0.084272973 -0.076805808 -0.71444392 0.43602258 0.39995369 0.88965774 0.043141227
0.08544834 -0.077175349 -0.71485513 0.44909799 0.37093207 0.90594685 0.042401422
-0.069507897 -0.07494016 -0.71357232 0.60691875 -0.627545 -0.57146674 0.045793723
-0.068356127 -0.074545063 -0.71331245 0.55970162 -0.67145908 -0.55225217 0.045444474
-0.067176223 -0.074137606 -0.71306926 0.51278692 -0.71022201 -0.5293681 0.045433652
0.041651767 -0.072161458 -0.71209508 -0.078414805 -0.93565804 -0.35700747 0.02964491
0.043035641 -0.072096847 -0.71202201 -0.084505744 -0.93209231 -0.36673015 0.033263087
0.044417784 -0.072043307 -0.71195751 -0.08985576 -0.92871672 -0.37550846 0.03600736
0.047161311 -0.072010234 -0.71187747 -0.10079382 -0.91901863 -0.39611006 0.039256532
0.051247515 -0.07206443 -0.71183467 -0.11788479 -0.89904553 -0.43175313 0.042897854
0.058072757 -0.072203204 -0.71180028 -0.15288801 -0.85843474 -0.49359369 0.045712814
0.05943229 -0.072281197 -0.71183103 -0.16417818 -0.84759092 -0.50738257 0.046009097
0.080426641 -0.075086564 -0.71396047 -0.37393859 -0.53550017 -0.80399638 0.044740185
0.081666417 -0.075346053 -0.71423477 -0.38611335 -0.50937247 -0.81966567 0.044832341
-0.049691305 -0.071973309 -0.71273375 0.10229474 -0.93349665 -0.34923881 0.031970013
-0.048308708 -0.072036467 -0.71276557 0.085779861 -0.93916756 -0.33797193 0.02725004
-0.046928823 -0.072101183 -0.71279478 0.07062792 -0.94419593 -0.3268711 0.023037702
-0.035991054 -0.072375596 -0.71292055 0.0038221246 -0.96208543 -0.27273017 0.0029616987
-0.03463247 -0.072390631 -0.71292531 0.0020893696 -0.96257025 -0.27103466 0.0029910647
-0.019692244 -0.072338097 -0.71291256 0.00090139842 -0.96520591 -0.26150435 0.0028712559
-0.018334972 -0.072344385 -0.71291447 0.0034753857 -0.96509695 -0.26187816 0.0029469391
-0.0088320505 -0.072158515 -0.71286488 0.011683092 -0.96546924 -0.26027691 0.0033413665
0.067252778 -0.072554119 -0.71292382 -0.21942458 -0.79226649 -0.56959403 0.043176349
0.068577178 -0.072682485 -0.71301824 -0.23155358 -0.77642059 -0.58653486 0.0435411
0.069885932 -0.072859719 -0.71315157 -0.24623202 -0.75684983 -0.60696763 0.043715335
0.073815577 -0.073319137 -0.7135247 -0.28126058 -0.6991502 -0.66494888 0.045175612
0.075117797 -0.073484138 -0.7136693 -0.292597 -0.67777741 -0.68541211 0.046128437
0.076409578 -0.073653072 -0.71382827 -0.30511802 -0.65644646 -0.70340979 0.046366714
0.077700891 -0.073811993 -0.71398783 -0.31660804 -0.63511479 -0.72071791 0.045961663
-0.0088211829 -0.07207267 -0.71320808 0.011295534 -0.965931 -0.2585763 0.0033361353
-0.0047442783 -0.072057076 -0.71320593 0.013985849 -0.96574318 -0.25915498 0.0034968951
-0.0033868125 -0.072066821 -0.71320969 0.012872153 -0.96538258 -0.26054925 0.0034974164
-0.0020301507 -0.072051913 -0.71320766 0.011656562 -0.96492028 -0.26232639 0.0035346248
-0.00067262969 -0.072040781 -0.71320581 0.011135281 -0.96458435 -0.26358584 0.0036025709
0.00068334606 -0.072030447 -0.71320319 0.0089201322 -0.96431571 -0.2646451 0.0037048561
0.0020383776 -0.072003305 -0.7131955 0.0055019883 -0.96421546 -0.2651026 0.0037930661
0.0061091329 -0.071910761 -0.71316993 -0.00015240556 -0.96434718 -0.26468354 0.0038451501
0.0074664536 -0.071896277 -0.71316671 -0.0022733714 -0.96427298 -0.2649498 0.0037854679
-0.071376249 -0.094021492 -0.71313053 1.5141599 0.65540689 -0.8239193 0.053812824
0.079153232 -0.093107969 -0.71238667 0.75038362 -0.64609897 1.2243661 0.039577466
-0.071990371 -0.09214554 -0.71255863 1.4711437 0.49944189 -0.83464378 0.054194227
0.079485103 -0.09134981 -0.71168351 0.73526239 -0.51125628 1.2292262 0.041213576
0.080734923 -0.090129927 -0.71191067 0.71657985 -0.44472787 1.2214507 0.04166355
0.080924936 -0.088483065 -0.7114985 0.69438636 -0.32696211 1.2069827 0.042940691
0.081032626 -0.086909562 -0.71124816 0.67054188 -0.21529992 1.1886748 0.044386458
0.081070691 -0.085412696 -0.71114415 0.64490247 -0.10115696 1.1678367 0.045375213
0.081075341 -0.084009513 -0.71113193 0.61459488 -0.0093657216 1.1322414 0.04513951
0.081041746 -0.082685918 -0.71120262 0.5863685 0.068953887 1.0977868 0.045173336
0.080984764 -0.081430472 -0.71133476 0.55519432 0.14421883 1.0570903 0.044630945
0.082125358 -0.081892349 -0.71182716 0.56801409 0.10731805 1.0741748 0.043858107
0.080862649 -0.080302782 -0.71160573 0.528853 0.2208834 1.0256604 0.045239076
0.082046308 -0.080700226 -0.71200728 0.54001284 0.17890415 1.0391207 0.044253442
0.080741867 -0.079221055 -0.71188581 -0.49918446 -0.28620544 -0.98471236 0.045055568
0.081935316 -0.079597905 -0.71226811 0.50980234 0.24901764 0.99925053 0.044508159
0.080599703 -0.078213215 -0.7122221 -0.47034404 -0.34628877 -0.94677001 0.045140628
0.081798017 -0.07858447 -0.71259755 -0.48267728 -0.31332183 -0.96272111 0.044729188
0.079226367 -0.076917857 -0.71226829 -0.42806986 -0.43490055 -0.88571405 0.045799062
0.080456369 -0.077231176 -0.71257067 -0.44154662 -0.40326473 -0.90526193 0.045122981
0.081656568 -0.077593006 -0.71293998 -0.4540244 -0.37313694 -0.92111582 0.044660397
0.044546619 -0.072318554 -0.71037018 -0.10642734 -0.91615921 -0.39895347 0.039289549
0.077803575 -0.075768419 -0.71244115 -0.38493174 -0.51666039 -0.82365251 0.045934223
0.079044461 -0.076071359 -0.71272045 -0.40063471 -0.48725635 -0.8456549 0.046021201
0.080285922 -0.076342709 -0.71299225 -0.41323644 -0.45850867 -0.86384231 0.045522079
-0.051182229 -0.072344713 -0.71137941 0.13859595 -0.92087877 -0.36803314 0.037172649
-0.011537203 -0.072604969 -0.71164137 0.010319259 -0.96438819 -0.26431012 0.0032133427
0.048412021 -0.072266757 -0.7110523 -0.1142449 -0.90475935 -0.42027268 0.040800277
0.049763016 -0.072325051 -0.71107435 -0.12122821 -0.89701182 -0.43265152 0.041621111
0.07634379 -0.074734665 -0.71269917 -0.34321812 -0.59079474 -0.76246172 0.046265986
0.077608965 -0.074980021 -0.71293348 -0.35703954 -0.56472671 -0.78247017 0.046216119
0.078855477 -0.075263768 -0.71319634 -0.37354052 -0.53685534 -0.80461925 0.046279598
-0.044083893 -0.072476082 -0.71197224 0.050178569 -0.94949406 -0.31264997 0.014831452
-0.042722948 -0.07251665 -0.7119869 0.039362431 -0.95223618 -0.30447161 0.011589545
-0.037294772 -0.072614044 -0.7120164 0.0067227543 -0.96162051 -0.27431396 0.002955131
-0.025089618 -0.07267262 -0.71203315 -0.001548 -0.96318829 -0.26887262 0.0026177026
-0.02102094 -0.072620526 -0.71201807 0.0013156403 -0.96410263 -0.26556695 0.0026938685
-0.0074602161 -0.072453648 -0.71197194 0.013289829 -0.9645136 -0.26371548 0.0032472117
-0.0061040758 -0.072444767 -0.71196926 0.012873316 -0.96412611 -0.2651501 0.003243807
-0.0047481195 -0.072436392 -0.71196687 0.013873527 -0.96399009 -0.26559293 0.0033231869
-0.00067934825 -0.072418205 -0.71196151 0.011015419 -0.96346945 -0.26760927 0.0034665386
0.000676992 -0.072389096 -0.7119534 0.0091529693 -0.96339244 -0.26795867 0.0036040458
0.0020338015 -0.072362743 -0.71194601 0.0058701187 -0.96323436 -0.26862556 0.0036769744
0.00339046 -0.072344773 -0.711941 0.0037772532 -0.96325749 -0.26858339 0.0036883084
0.0047472906 -0.072305217 -0.71192986 0.0014285265 -0.96332842 -0.26835358 0.0037002556
0.0061043072 -0.072277911 -0.71192223 -0.0012087519 -0.96340621 -0.2680763 0.0036911014
0.0074608517 -0.072251894 -0.71191508 -0.0024686111 -0.96349078 -0.26775458 0.0036386529
0.0088171279 -0.07222724 -0.71190804 -0.0035957887 -0.96361691 -0.26727924 0.0035802634
0.07096491 -0.073367216 -0.71262479 -0.26954225 -0.71911407 -0.646366 0.044505022
0.072258212 -0.073555283 -0.71277684 -0.28372568 -0.69773245 -0.66749495 0.045022659
-0.023732822 -0.072563373 -0.71238434 -0.00030902075 -0.96363294 -0.26726356 0.0026766439
-0.02237794 -0.072544739 -0.7123757 -0.00024643604 -0.96411544 -0.26550934 0.0026504409
-0.0074469014 -0.072335094 -0.71230912 0.013668412 -0.9648841 -0.26234102 0.0033530325
-0.0060902722 -0.072339371 -0.71231335 0.0137839 -0.9646098 -0.26334545 0.0033049185
0.0033903839 -0.072246924 -0.71229208 0.0037684308 -0.96359837 -0.26735812 0.0036800453
0.0047444901 -0.072211623 -0.71228206 0.0017041101 -0.96368396 -0.26707032 0.0036898262
0.0088100694 -0.072129339 -0.71225959 -0.0031465632 -0.96377403 -0.26672077 0.0036419006
0.010165951 -0.072109342 -0.71225393 -0.0044947742 -0.96387321 -0.26634023 0.003602817
0.011522351 -0.072102152 -0.71225226 -0.0055671833 -0.96398592 -0.26591751 0.0035420225
0.075727172 -0.094616592 -0.71139044 0.74092942 -0.75195396 1.1765157 0.036455724
0.076154426 -0.092935443 -0.7105363 0.74829394 -0.61225379 1.2219633 0.040724967
0.07709153 -0.093333364 -0.71138531 0.74214721 -0.66757566 1.1949801 0.037771363
0.07744503 -0.091685861 -0.71067226 0.73782521 -0.52632326 1.2211399 0.041155715
-0.071493387 -0.090960391 -0.71088916 1.4185969 0.35829306 -0.85096169 0.055676121
0.077685975 -0.090036876 -0.71016169 0.7128852 -0.40955704 1.2046231 0.041998606
0.078687042 -0.09049055 -0.71090269 0.71855241 -0.45275331 1.206315 0.040879093
-0.071756996 -0.089346103 -0.7106365 1.3545095 0.2383808 -0.84160107 0.054884199
0.078885511 -0.088906787 -0.71049339 0.6952495 -0.3420485 1.188567 0.041753456
0.07901255 -0.08738897 -0.71022129 0.67311537 -0.23381549 1.1779634 0.043354116
0.079065412 -0.085962608 -0.71010792 0.65174013 -0.12594028 1.16469 0.044735432
-0.071933918 -0.083809197 -0.71046913 1.104082 -0.10994242 -0.77453029 0.054594446
-0.071831733 -0.082639374 -0.71058404 1.0477579 -0.17930532 -0.75507897 0.053796001
0.079015315 -0.082026176 -0.71022624 0.56651539 0.1200268 1.0670298 0.0459808
-0.071680434 -0.081569336 -0.71076959 0.99272209 -0.24371599 -0.73727638 0.05378319
0.078919634 -0.080899745 -0.71045142 0.53796995 0.19571845 1.031625 0.046163864
-0.071499035 -0.080566652 -0.71099949 0.93830436 -0.30276188 -0.71863472 0.053613607
0.078801759 -0.079846941 -0.71073461 0.50955415 0.26336733 0.99558586 0.04620764
0.077475265 -0.078489751 -0.71068937 -0.46780351 -0.35805863 -0.93997955 0.045750778
0.078671724 -0.078845352 -0.7110498 -0.48167315 -0.32436395 -0.95980978 0.045993343
-0.070132084 -0.078043453 -0.71104968 0.78085834 -0.46580085 -0.65576363 0.052198626
0.077315934 -0.077567786 -0.71106416 -0.44023311 -0.41187567 -0.90355575 0.046097673
-0.06885729 -0.076618001 -0.710976 0.68105114 -0.55728078 -0.60989279 0.049779467
-0.06779363 -0.076106861 -0.71063763 0.63161898 -0.60429162 -0.588911 0.049807817
0.074678876 -0.076135807 -0.7109319 -0.38138685 -0.52293479 -0.82249141 0.046021167
0.075911902 -0.076434217 -0.7112124 -0.39614496 -0.49503762 -0.84312248 0.046301983
-0.052221339 -0.073015921 -0.70971578 0.17096065 -0.90473318 -0.3919256 0.039464351
-0.049488746 -0.073027663 -0.70972997 0.12948132 -0.92157733 -0.36842167 0.033826873
-0.010146742 -0.07316494 -0.70984739 0.0097255763 -0.96205801 -0.27268788 0.0029291206
0.0020271689 -0.073007502 -0.70980537 0.0060495618 -0.96219528 -0.27234933 0.003441189
0.0074422988 -0.072870784 -0.70976514 -0.0012131295 -0.96223742 -0.27223659 0.0033944449
0.03184877 -0.072922938 -0.70967215 -0.05189953 -0.94465637 -0.33069485 0.017964296
0.038679283 -0.07270997 -0.70951313 -0.085430779 -0.92885143 -0.37022582 0.030960543
0.04004778 -0.072649524 -0.70946753 -0.092542447 -0.92463529 -0.3792679 0.033335354
0.064230636 -0.073732719 -0.71002108 -0.24474707 -0.74510068 -0.62361741 0.045392845
0.065530442 -0.073925152 -0.71016824 -0.25753638 -0.72667605 -0.6424337 0.045514151
0.066825189 -0.074127197 -0.71032667 -0.27253768 -0.70693195 -0.66159433 0.045407154
0.06811396 -0.074336052 -0.71048969 -0.28903362 -0.6855278 -0.6822744 0.045358326
0.069403008 -0.074531429 -0.71065098 -0.3026107 -0.66420704 -0.70228958 0.045565166
0.073229037 -0.075177014 -0.7112149 -0.34389475 -0.59292328 -0.76604372 0.045822136
0.074489705 -0.075374968 -0.71141326 -0.35609499 -0.56758755 -0.78558719 0.046279233
-0.038523503 -0.073062994 -0.71021229 0.018269584 -0.95855826 -0.28442594 0.0045715659
-0.0033753957 -0.072970971 -0.71017206 0.011682805 -0.96234906 -0.27160791 0.0032070181
-0.0020234771 -0.072953679 -0.71016705 0.011145388 -0.96250892 -0.27106023 0.0033044063
0.01014044 -0.072703928 -0.71009934 -0.0040099961 -0.96228927 -0.2720094 0.0033858404
0.011492892 -0.072692163 -0.710096 -0.0051224004 -0.96241444 -0.27154005 0.003379137
0.072355181 -0.093745455 -0.70878106 0.74461406 -0.65908211 1.2048968 0.042071387
0.073293738 -0.094152138 -0.70963645 0.73169494 -0.70277941 1.1742198 0.038241014
0.074242592 -0.094475374 -0.71044755 0.72510135 -0.73467892 1.1505539 0.03544737
0.073698707 -0.092386119 -0.70879334 0.73986059 -0.5517655 1.2270958 0.042881098
0.074657843 -0.092841111 -0.7096113 0.73757118 -0.60165191 1.210271 0.040284034
0.073960863 -0.090641156 -0.70821881 0.72342038 -0.42081091 1.2285613 0.044582278
0.074957527 -0.09114901 -0.70898688 0.72602469 -0.47232032 1.2179458 0.04250598
0.075934559 -0.091607384 -0.70977086 0.72627109 -0.51732701 1.2083998 0.040506151
-0.070698075 -0.090062246 -0.70921129 1.3646189 0.26158798 -0.84961718 0.055880301
0.075154498 -0.089493498 -0.70855373 0.70880562 -0.33827254 1.2184283 0.044676561
0.076174155 -0.089989662 -0.70927531 0.71472788 -0.38802502 1.2136792 0.042845353
-0.070867926 -0.088499613 -0.70903444 1.3000729 0.15005662 -0.83674234 0.055838481
0.075272568 -0.087898433 -0.70827556 0.68293476 -0.21812287 1.2027818 0.045696057
0.076327324 -0.088415638 -0.70894372 0.691266 -0.27557153 1.1986321 0.044282522
0.077359453 -0.08887545 -0.70962602 0.69136852 -0.32653576 1.1865611 0.04218654
-0.070937715 -0.087051399 -0.70895904 1.2344854 0.044157378 -0.8219983 0.056117542
0.075320877 -0.086404637 -0.708148 0.65331841 -0.11257718 1.1749846 0.046080593
0.076406606 -0.086920567 -0.70876318 0.66602492 -0.16768131 1.1805791 0.045450535
0.07748168 -0.087379202 -0.70937687 0.67065066 -0.22100858 1.1726651 0.043880392
-0.070926204 -0.085715525 -0.70897061 1.1730256 -0.039214887 -0.80522525 0.054697923
0.075339675 -0.084992692 -0.70810163 0.61970669 -0.025265835 1.1346277 0.045571737
0.076441616 -0.085492559 -0.70868242 0.63454896 -0.068782225 1.1479107 0.045778412
0.077535704 -0.08596313 -0.70926315 0.64648598 -0.11712216 1.1553098 0.045047451
0.075296573 -0.08366631 -0.70818859 0.59313703 0.063113235 1.1076905 0.045899753
0.076423422 -0.08415921 -0.70872021 0.60648823 0.020861588 1.1177876 0.045912247
0.077529974 -0.084647551 -0.70928127 0.62297082 -0.019181997 1.1364192 0.045645598
0.078632995 -0.085084036 -0.70982128 0.63409466 -0.068075955 1.1444077 0.044439919
0.07523445 -0.082420953 -0.7083292 0.56223714 0.14052087 1.0686189 0.045883968
0.076382145 -0.082883582 -0.70881331 0.57733709 0.098898999 1.0828224 0.045611024
0.077508733 -0.083349198 -0.70933008 0.59200633 0.059464056 1.0991988 0.045737091
0.078628853 -0.083780043 -0.70984179 0.60386002 0.016716622 1.110442 0.045069579
0.075124606 -0.081289269 -0.70858437 0.53437984 0.21656221 1.0338274 0.045743681
0.076299928 -0.081708163 -0.70900458 0.55022115 0.17309123 1.0509499 0.04580861
0.077456743 -0.082124867 -0.7094537 0.56420648 0.13088346 1.0661123 0.046041943
0.075010836 -0.080207653 -0.70885694 -0.50301886 -0.28182045 -0.99044406 0.045793794
0.07617873 -0.080647558 -0.70929295 -0.52053928 -0.24578553 -1.0126967 0.046385489
0.077360757 -0.081007831 -0.70967913 0.53407913 0.20386718 1.0278894 0.046473593
-0.070241906 -0.080174766 -0.70978206 0.89045173 -0.35647321 -0.70485222 0.052958924
0.074882776 -0.079174869 -0.70916653 -0.47336298 -0.34125629 -0.94809604 0.045906428
0.076063223 -0.079591155 -0.70957226 -0.49143288 -0.30623013 -0.97385406 0.046499543
0.077239484 -0.079982974 -0.70997232 -0.50746697 -0.27025175 -0.99414647 0.046603322
-0.070020564 -0.079239972 -0.71005082 0.83985651 -0.40397993 -0.68249321 0.052652288
0.07472533 -0.078240037 -0.70954841 -0.44765154 -0.39706028 -0.91255838 0.046016
0.075926676 -0.07860098 -0.70990044 -0.46257883 -0.36406377 -0.93484044 0.046579961
-0.06879656 -0.077748202 -0.70991838 0.73898226 -0.50412643 -0.63790703 0.052251909
0.069577537 -0.076213412 -0.70892584 -0.35897321 -0.56475681 -0.79241371 0.046471957
0.070850752 -0.076450445 -0.70912784 -0.37357262 -0.53831643 -0.81140071 0.046556469
0.072097421 -0.07674747 -0.70938712 -0.3907519 -0.51037228 -0.83327132 0.046304096
0.073329471 -0.077066213 -0.70967412 -0.40633065 -0.48054689 -0.8560549 0.046053872
0.074551396 -0.077383101 -0.70997876 -0.42086652 -0.44993415 -0.87607628 0.046292916
0.075771384 -0.077674642 -0.71028519 -0.43247688 -0.41967914 -0.8935079 0.047018349
-0.066351883 -0.076053008 -0.70963657 0.59737504 -0.63674861 -0.57754028 0.050617862
-0.065212071 -0.075629234 -0.70937508 0.55182815 -0.67749536 -0.55648816 0.049701903
-0.050966043 -0.073446169 -0.70838678 0.16517335 -0.90987945 -0.38192779 0.038178783
-0.049598299 -0.073410586 -0.70838112 0.14404847 -0.91862881 -0.36985692 0.035845123
-0.00068489875 -0.073426992 -0.70857263 0.0098663708 -0.96135366 -0.27522051 0.0032151204
0.00066724117 -0.073430121 -0.70857298 0.0089772707 -0.96145231 -0.27489555 0.0031777662
0.0020223432 -0.073385581 -0.70856136 0.0062956167 -0.96179318 -0.27376938 0.0032496098
0.0033797259 -0.073341765 -0.70854956 0.0026591956 -0.96190244 -0.27345276 0.0033254772
0.065514602 -0.074892133 -0.70895392 -0.2922104 -0.67318332 -0.69742233 0.046139821
0.06680128 -0.075115964 -0.70913005 -0.30672663 -0.65105033 -0.71798468 0.046295851
0.068088368 -0.075321943 -0.70929867 -0.31985629 -0.62859201 -0.7376402 0.04629425
0.069368258 -0.075535953 -0.70947969 -0.33540264 -0.60526317 -0.75674081 0.046585359
0.070638545 -0.075764067 -0.70967746 -0.35046697 -0.58091635 -0.77660143 0.046721935
0.071894281 -0.076013871 -0.70990002 -0.36600992 -0.55521053 -0.79667038 0.046315633
0.073145442 -0.076258905 -0.71013534 -0.37921488 -0.52788168 -0.81703067 0.046158668
-0.047996718 -0.073286436 -0.70887631 0.11659461 -0.92760247 -0.357669 0.031820837
-0.043923616 -0.073319487 -0.70889938 0.069428392 -0.94563013 -0.32077259 0.018958183
-0.033086844 -0.073550425 -0.70898539 0.00069809071 -0.9608075 -0.27722105 0.0026747508
-0.012830884 -0.073477142 -0.70896417 0.010625278 -0.96076822 -0.27715224 0.0028062547
-0.0087795425 -0.073437907 -0.7089538 0.010930996 -0.96159929 -0.2742582 0.0028161313
-0.0074292193 -0.073423862 -0.70895004 0.011211866 -0.9617089 -0.27386799 0.0028788571
-0.0060790232 -0.073410504 -0.70894641 0.011845164 -0.96177208 -0.27361944 0.0029335385
-0.0020276257 -0.073340535 -0.70892721 0.010135543 -0.96178055 -0.27369198 0.0031940565
-0.00067713269 -0.073323362 -0.70892245 0.0098814033 -0.96174276 -0.27384174 0.0032391949
0.00067387248 -0.073324017 -0.70892239 0.008238635 -0.96176708 -0.27379772 0.003208433
0.0033768059 -0.073245786 -0.70890051 0.0029011641 -0.96194071 -0.27330688 0.0033279434
0.0047280174 -0.073213406 -0.70889091 0.0016098168 -0.961752 -0.27398163 0.0033234605
0.0060790018 -0.073177308 -0.70888042 0.00045777176 -0.9616555 -0.27431551 0.003334692
0.0087809991 -0.073091991 -0.70885611 -0.0024586269 -0.96173936 -0.27398026 0.0033358433
0.033147067 -0.07302326 -0.70874155 -0.061880689 -0.93845642 -0.34774038 0.022487471
0.03450352 -0.073018685 -0.7087332 -0.068877265 -0.93472576 -0.35638958 0.024568735
0.035865519 -0.072973378 -0.7087037 -0.07587003 -0.93135852 -0.36436808 0.027483033
0.037232243 -0.0729132 -0.7086637 -0.083837561 -0.92725623 -0.37386426 0.030841036
0.060101438 -0.073579498 -0.70898449 -0.2144787 -0.77898824 -0.58987415 0.04695826
0.061409991 -0.073743425 -0.7091049 -0.22856431 -0.76172906 -0.60801494 0.046589367
0.062709354 -0.073935039 -0.70924938 -0.24234413 -0.74360406 -0.62692761 0.046165425
0.070420906 -0.075138636 -0.71024501 -0.32817358 -0.61955047 -0.74361265 0.046724804
0.071688749 -0.075317524 -0.71042264 -0.34060422 -0.59671092 -0.7616359 0.046514466
-0.041118708 -0.073268369 -0.70933646 0.041326128 -0.95271939 -0.30227825 0.010401028
-0.03978435 -0.073280118 -0.70933008 0.032738782 -0.9544701 -0.29716101 0.0081456443
-0.023631446 -0.073426925 -0.70934987 0.0015697455 -0.96011174 -0.27966776 0.0023949172
-0.022280423 -0.073411316 -0.7093451 0.002155639 -0.96013039 -0.27959988 0.0024011033
0.012823298 -0.072959706 -0.70920229 -0.0072262064 -0.96165448 -0.27417085 0.0032271403
0.012812206 -0.072865829 -0.70955861 -0.007305407 -0.96191233 -0.27326289 0.0032828767
0.014159856 -0.072872452 -0.70956355 -0.010084051 -0.96192563 -0.27313021 0.0033051677
0.069009311 -0.095242165 -0.70771474 0.73151016 -0.73930585 1.1480898 0.036146756
0.069944061 -0.095553026 -0.70854843 0.72506744 -0.76781636 1.13115 0.034930516
-0.068228953 -0.095674984 -0.70921272 1.4762875 0.72026986 -0.79873538 0.049522616
0.069424622 -0.093512088 -0.7068485 0.74314731 -0.61007077 1.2057627 0.041667048
0.07035929 -0.093939021 -0.7077136 0.73492342 -0.66072166 1.1785992 0.039502494
-0.068849452 -0.093998283 -0.70869696 1.4568373 0.58357245 -0.81771541 0.05195976
0.07070481 -0.092240594 -0.70698953 0.73290509 -0.52678525 1.2110119 0.043275144
0.071669601 -0.092673831 -0.70779335 0.72966164 -0.57816136 1.1957183 0.041165136
-0.069372445 -0.092347562 -0.70826513 1.426368 0.42558801 -0.83688051 0.053403683
0.070941903 -0.090547211 -0.70647067 0.71739298 -0.39029714 1.2179567 0.045367081
0.071942627 -0.091040716 -0.70722312 0.72041863 -0.44028729 1.2127788 0.043892629
0.071090758 -0.088910602 -0.70613533 0.69425189 -0.26555192 1.2090629 0.046496339
0.072127946 -0.089429468 -0.70682418 0.70068675 -0.31959912 1.2087903 0.045130365
0.073147617 -0.089909963 -0.70752841 0.70785969 -0.36822504 1.212352 0.044834442
0.072224952 -0.087894678 -0.70660448 0.67781359 -0.19410455 1.1986276 0.046378452
0.073283739 -0.088385873 -0.70724148 0.68435824 -0.24663395 1.1978958 0.045398667
0.072272114 -0.086434811 -0.70649171 0.64820367 -0.095086955 1.1690983 0.046269372
0.073348314 -0.086942241 -0.70710224 0.65950501 -0.14022121 1.1794667 0.046607554
0.072268844 -0.085066497 -0.70648938 0.61668146 -0.0043278546 1.1336614 0.046713326
0.073373884 -0.085550778 -0.70704466 0.62744546 -0.048590936 1.1438235 0.046539221
-0.069987908 -0.085253596 -0.70775312 1.1418893 -0.090124406 -0.78442997 0.05453331
0.072229676 -0.083774887 -0.70657009 0.58582973 0.077668943 1.0981449 0.047259126
0.073361598 -0.084230423 -0.70707339 0.59571266 0.03424754 1.1063585 0.046721786
-0.069908954 -0.084073052 -0.70786256 1.0834302 -0.15666275 -0.76658738 0.053733815
0.07215941 -0.082563929 -0.70673019 0.55596244 0.15347964 1.0625482 0.046988592
0.07330025 -0.083021298 -0.7072196 0.56726068 0.11595031 1.0745858 0.047128525
-0.069778301 -0.082990937 -0.70802683 1.0247641 -0.22248073 -0.7488144 0.053608246
0.072065033 -0.081429861 -0.70695585 0.52613968 0.22306953 1.0246798 0.046963293
0.073224612 -0.081853256 -0.70739883 0.53915566 0.18611251 1.0391238 0.04694625
-0.069633447 -0.081910402 -0.708215 0.9687922 -0.27408388 -0.72854966 0.053651471
0.070743658 -0.080012806 -0.70689207 -0.48193431 -0.32500163 -0.97091973 0.047139302
0.071934193 -0.080408424 -0.70727473 -0.49746349 -0.28963944 -0.98915547 0.047267634
0.073109157 -0.080807105 -0.70768327 0.51173341 0.25433657 1.0052136 0.047364231
0.069377527 -0.078712225 -0.70693898 -0.43809751 -0.41541636 -0.91104126 0.047158457
0.070596278 -0.07905969 -0.70725936 -0.45270264 -0.38281074 -0.9302851 0.047282159
0.071803495 -0.079414457 -0.70760614 -0.46746498 -0.34917995 -0.94918615 0.047379952
0.072987683 -0.079779111 -0.70798129 -0.48118258 -0.31740567 -0.96370888 0.047366142
-0.068334542 -0.07930775 -0.70819354 0.81287533 -0.43847281 -0.66568398 0.05199901
-0.067381494 -0.078633137 -0.70773208 0.75987631 -0.49472174 -0.64150977 0.051343106
0.067958906 -0.077578552 -0.70712465 -0.3950786 -0.49604806 -0.8532365 0.046594635
0.06919954 -0.077881299 -0.70739335 -0.41098398 -0.46650857 -0.87324375 0.047090452
0.070433825 -0.078171998 -0.70767117 -0.42400768 -0.43607938 -0.89094055 0.047849085
0.071652092 -0.078493394 -0.70799005 -0.43891728 -0.40509263 -0.90966362 0.047850523
0.072847418 -0.078813337 -0.70832652 -0.45230401 -0.3753114 -0.92396414 0.047641039
-0.067081392 -0.077908255 -0.7080965 0.71462238 -0.53508568 -0.62272 0.050647847
-0.066054419 -0.077364281 -0.70774245 0.66492862 -0.5851388 -0.60164082 0.050072927
0.065233916 -0.076351836 -0.70721471 -0.3385253 -0.59316957 -0.77383983 0.046151578
0.06650649 -0.076585017 -0.70741355 -0.35350534 -0.56777489 -0.79392552 0.046564844
0.067768693 -0.07682848 -0.70762897 -0.36880195 -0.54195648 -0.81319112 0.046525609
-0.063476555 -0.075927764 -0.70763034 0.53022039 -0.69881189 -0.54144359 0.048853375
-0.051989973 -0.074112415 -0.70673949 0.20127237 -0.89653796 -0.39520425 0.039557904
-0.047965553 -0.073884957 -0.70666033 0.13733803 -0.92307121 -0.36085016 0.033109598
-0.010108293 -0.074145839 -0.70682144 0.013963913 -0.95795959 -0.28656691 0.0025094841
-0.0087624472 -0.074114397 -0.7068153 0.014723379 -0.95875424 -0.28385699 0.0026089754
-0.0074159275 -0.074096031 -0.70681202 0.014780413 -0.95917308 -0.2824451 0.0027043312
-0.0060691088 -0.074061431 -0.7068063 0.013772686 -0.96018416 -0.27907032 0.002891191
-0.0047222609 -0.074045561 -0.70680332 0.01359048 -0.96041763 -0.27830058 0.0029482048
-0.0033744734 -0.074028164 -0.70679957 0.012689663 -0.9606393 -0.27760172 0.0029340601
-0.0020265782 -0.074009724 -0.70679545 0.011593592 -0.96080136 -0.27711767 0.0029792187
0.0047182883 -0.073838361 -0.70674586 0.00062683417 -0.96090281 -0.27701283 0.0031563896
0.038606431 -0.073371865 -0.70626956 -0.11051888 -0.90169215 -0.42261803 0.038138308
0.039966833 -0.073356144 -0.70624346 -0.11832891 -0.89543712 -0.43323967 0.039525263
0.041315515 -0.073387146 -0.70624638 -0.12704566 -0.88852161 -0.44401193 0.040322572
0.042658899 -0.073447362 -0.70626944 -0.13492063 -0.88117713 -0.45529881 0.040616106
0.048040036 -0.073627912 -0.70631582 -0.16611508 -0.84688342 -0.50544184 0.043514118
0.049369946 -0.073706135 -0.70635182 -0.17302267 -0.83618826 -0.52044797 0.044064049
0.06248438 -0.07522691 -0.70737439 -0.2877827 -0.67390299 -0.69939423 0.04643061
0.063757673 -0.075469144 -0.70757043 -0.30204868 -0.65170556 -0.72007632 0.046757512
-0.054361876 -0.074104078 -0.70730221 0.24215455 -0.87664777 -0.4182364 0.04261101
-0.053037301 -0.074057631 -0.70727593 0.21546397 -0.88951141 -0.40421012 0.040769078
-0.046406798 -0.073721826 -0.7071268 0.11140207 -0.93242925 -0.34614947 0.028182045
-0.045068063 -0.073707588 -0.70711714 0.092974067 -0.93904251 -0.33390391 0.023838611
-0.042380381 -0.073766269 -0.70713007 0.066018946 -0.94725329 -0.31576529 0.015809389
-0.041037444 -0.073802456 -0.7071383 0.054416139 -0.95009416 -0.30873841 0.012594254
-0.039696619 -0.073829733 -0.70714331 0.042127736 -0.95266372 -0.30216771 0.009839219
-0.03567509 -0.074014753 -0.70718974 0.012466989 -0.95716536 -0.28933805 0.0033895108
-0.034334585 -0.074086152 -0.70720911 0.005438088 -0.95783716 -0.28727317 0.0025045394
-0.031646311 -0.07413321 -0.70722193 -0.00071042281 -0.95852607 -0.28501657 0.0022868256
-0.014131054 -0.074057437 -0.7072013 0.011590786 -0.95781285 -0.2871775 0.0025014428
-0.0047065159 -0.073938876 -0.70715463 0.013663444 -0.96044868 -0.27818424 0.0029323043
-0.0033611206 -0.073914267 -0.70714653 0.012829137 -0.96077502 -0.27712357 0.0029567396
0.010098169 -0.073595457 -0.70705771 -0.0048903851 -0.9609074 -0.27685881 0.0031823211
0.067599483 -0.095101446 -0.70665234 0.73651803 -0.70982265 1.1676749 0.037933443
-0.067686908 -0.094890431 -0.70736641 1.4662532 0.61998838 -0.81276101 0.050748147
0.067954734 -0.093411557 -0.70590466 0.73204243 -0.59924024 1.1885573 0.041403074
-0.068252571 -0.093157485 -0.70690024 1.4402934 0.46898738 -0.82990742 0.052675586
0.068242304 -0.091648214 -0.70526481 0.73060489 -0.44960296 1.2248126 0.04613857
0.069228545 -0.092150196 -0.70605785 0.72880787 -0.50392467 1.2088677 0.043183822
-0.068643451 -0.091476664 -0.70656818 1.392535 0.32728952 -0.8302815 0.052473776
0.069448248 -0.090484552 -0.70557386 0.71285063 -0.37075132 1.2143869 0.04521605
-0.068887703 -0.08988741 -0.70635229 1.3378475 0.20679055 -0.82370102 0.052345373
0.069579288 -0.088877439 -0.70527267 0.69155794 -0.24722844 1.2084879 0.046883501
0.070701428 -0.087896869 -0.70576912 0.67806631 -0.18036664 1.2013546 0.046902899
0.070747368 -0.086453363 -0.705661 0.64540374 -0.086274423 1.1662432 0.046855744
0.070739321 -0.085106254 -0.70567548 0.61493331 0.0025624838 1.1342953 0.047385052
0.070687495 -0.083855145 -0.70579386 0.584647 0.088762365 1.1012774 0.047636297
0.070621356 -0.082653858 -0.70594901 0.55294335 0.16082406 1.0621953 0.04772814
0.070523091 -0.081541412 -0.70618486 0.52268022 0.22929725 1.0237765 0.048197258
0.069209516 -0.080130994 -0.70611203 -0.47716928 -0.32877433 -0.96674019 0.047390636
-0.068174787 -0.080590323 -0.70720112 0.87779319 -0.38400298 -0.68621159 0.051532149
-0.067270331 -0.079879023 -0.7067253 0.82338607 -0.446605 -0.66430974 0.05072533
0.067846179 -0.078852162 -0.70616472 -0.43434343 -0.41871548 -0.91134703 0.047698978
-0.066000775 -0.078500897 -0.70667189 0.72197795 -0.54384708 -0.62558812 0.050157409
0.065181836 -0.077445887 -0.70610255 -0.37478411 -0.52808821 -0.82933289 0.04686429
0.066436186 -0.07771533 -0.70633596 -0.3911097 -0.49910197 -0.8508684 0.047564298
-0.064630412 -0.077306852 -0.70672458 0.62888139 -0.62377685 -0.58541942 0.049586948
-0.0033821885 -0.074427091 -0.70555413 0.013719752 -0.9595111 -0.2813926 0.0028069341
0.026499193 -0.073541142 -0.7049154 -0.062739737 -0.93863511 -0.3475177 0.023856735
0.027862381 -0.073557958 -0.70489043 -0.069459543 -0.93454534 -0.35726559 0.02627638
-0.054462101 -0.074637532 -0.7060014 0.2618891 -0.87063664 -0.42045286 0.041499197
-0.053139772 -0.074544035 -0.70596236 0.23582989 -0.88338673 -0.40706429 0.040204018
0.026328249 -0.073554941 -0.7055437 -0.057435196 -0.94121915 -0.33884081 0.019699074
0.033100765 -0.073529676 -0.70544708 -0.085869111 -0.92023391 -0.38904902 0.03169005
0.034455262 -0.073531844 -0.70543522 -0.093210526 -0.91422635 -0.40074217 0.033720605
0.03580492 -0.073578842 -0.70545262 -0.10191302 -0.90792531 -0.41177928 0.035053179
0.037150882 -0.073607743 -0.70545781 -0.11036617 -0.90071923 -0.42406318 0.036896162
0.051873833 -0.074191287 -0.70570576 -0.19975807 -0.79869461 -0.56867909 0.045238189
-0.056759972 -0.074631684 -0.7066052 0.30656064 -0.84576678 -0.4432283 0.044135217
-0.05548906 -0.074437521 -0.70650697 0.27221629 -0.86331892 -0.42794004 0.0432139
-0.038281672 -0.074112974 -0.70626318 0.033735886 -0.95432156 -0.29745826 0.0079489676
-0.03694652 -0.074172147 -0.70627558 0.025417028 -0.95576978 -0.29329678 0.0059889113
-0.030259509 -0.074424423 -0.70634997 -0.0022065481 -0.95692402 -0.29036456 0.0020815749
-0.028916642 -0.074409075 -0.70634532 -0.0028149148 -0.95694345 -0.290299 0.0020597617
-0.024879454 -0.074351907 -0.70632923 -0.00022947064 -0.95658904 -0.2914798 0.0020029596
-0.023532499 -0.074343376 -0.70632797 0.0011354568 -0.95639193 -0.29213101 0.0020217132
0.011423901 -0.073816516 -0.70615256 -0.0081055015 -0.96015704 -0.27937219 0.0032295086
0.012767459 -0.073786348 -0.70614594 -0.010775732 -0.95961797 -0.28113079 0.0033316368
0.014091266 -0.073680021 -0.7065118 -0.012360579 -0.95935869 -0.28194168 0.0033858886
0.015427876 -0.073662393 -0.70651489 -0.015688341 -0.95885032 -0.28354377 0.0036218539
0.01676709 -0.073640361 -0.70651913 -0.018366508 -0.95803541 -0.28619495 0.0040658014
0.018099796 -0.073613025 -0.70652324 -0.023554314 -0.95705861 -0.2892226 0.0047041336
-0.066493019 -0.095798731 -0.70608073 1.4647244 0.67048573 -0.8014186 0.049720757
0.065226808 -0.094574973 -0.70479202 0.72729409 -0.65017939 1.1571224 0.037294738
0.066161081 -0.09495341 -0.70564979 0.72342426 -0.68671823 1.1426469 0.03566828
-0.067147292 -0.093982399 -0.7055617 1.4461135 0.50916255 -0.81577027 0.049981494
0.065567479 -0.092774719 -0.70404637 0.73085672 -0.51095587 1.2049941 0.042807404
0.066511668 -0.093282379 -0.70491326 0.73032475 -0.57097167 1.1892277 0.040732477
-0.067631513 -0.092191875 -0.70516217 1.4097836 0.35041058 -0.82771921 0.051339474
0.065781899 -0.09100581 -0.70354038 0.71639121 -0.37399253 1.2153378 0.045578524
0.066769779 -0.091557004 -0.70433491 0.72604001 -0.42669004 1.220811 0.045203853
0.067952439 -0.090440594 -0.70469421 0.70614976 -0.36250231 1.2018877 0.04588531
0.068076409 -0.088860534 -0.70440906 0.68487012 -0.23846062 1.1963077 0.047328766
-0.068551131 -0.088767476 -0.70557386 1.2938823 0.10522915 -0.80927485 0.050008707
0.06812422 -0.087365918 -0.70428598 0.66148847 -0.12383594 1.184328 0.048071153
0.069196992 -0.087885395 -0.70490921 0.67158633 -0.17389224 1.1901227 0.046888493
-0.068590932 -0.087436154 -0.70555401 1.2329714 -0.0021416456 -0.7970553 0.049827393
0.068141907 -0.085965991 -0.70424247 0.62802941 -0.037649941 1.1459852 0.047669873
0.069226712 -0.086479664 -0.70483989 0.64236188 -0.076794423 1.1621749 0.046930365
-0.068556413 -0.086186238 -0.70559907 1.1716815 -0.084274948 -0.77896667 0.050088994
0.068095118 -0.084658921 -0.70433462 0.59939903 0.056311518 1.1183474 0.047396619
0.069220543 -0.085141025 -0.70485234 0.61060578 0.013107727 1.1276569 0.046393365
0.068027288 -0.083437793 -0.70448834 0.56708252 0.13575362 1.0804864 0.047466762
0.069167815 -0.083905041 -0.70497477 0.58031857 0.096798301 1.0943121 0.046699449
0.067938842 -0.082281917 -0.70469463 0.53719312 0.20713447 1.0431093 0.047640085
0.069092102 -0.082737423 -0.70515651 0.5516603 0.16948429 1.0600543 0.047228161
-0.068185903 -0.082890444 -0.70602429 0.99636406 -0.27857345 -0.72524667 0.050386719
0.067837253 -0.081185408 -0.7049433 -0.50498593 -0.27202332 -0.99940091 0.047424484
0.069008119 -0.081600726 -0.70536369 0.51951832 0.23496625 1.017561 0.047127329
-0.068005271 -0.081876934 -0.70623052 0.94155478 -0.32663617 -0.70508099 0.05091767
0.067688234 -0.080235116 -0.70531595 -0.4767206 -0.33402821 -0.96693194 0.047361426
-0.065937012 -0.079653673 -0.70561153 0.78425866 -0.50324261 -0.6435824 0.048127174
0.066310473 -0.079018906 -0.70540839 -0.43284968 -0.42336005 -0.91082895 0.047738235
-0.064622447 -0.078331046 -0.70559311 0.68382233 -0.59045702 -0.60107791 0.047382347
-0.06320779 -0.077269047 -0.7057128 0.5908649 -0.6646896 -0.5632441 0.046469517
0.000667891 -0.074610837 -0.70464206 0.0073743993 -0.95996517 -0.28015599 0.0028211593
0.033211876 -0.073848516 -0.70394456 -0.099844508 -0.90672624 -0.41456425 0.03510645
0.034561291 -0.073876098 -0.70394093 -0.10809903 -0.89970618 -0.42648616 0.036002792
0.035914894 -0.073914051 -0.70394373 -0.11658096 -0.89290994 -0.43765795 0.037240729
0.063464224 -0.076912284 -0.70584929 -0.35080653 -0.57074988 -0.79417211 0.0471563
-0.046359643 -0.074356645 -0.70493323 0.13099594 -0.92825323 -0.35003388 0.030546054
-0.045009848 -0.074380085 -0.70494407 0.11334416 -0.93457866 -0.33945459 0.027510399
-0.043669302 -0.074345827 -0.70493275 0.096018322 -0.94035882 -0.32902151 0.023900904
-0.042320956 -0.074360333 -0.70494026 0.080319189 -0.94477624 -0.32011002 0.019654483
-0.04097221 -0.074384876 -0.70495069 0.066298857 -0.94822639 -0.31249714 0.015766967
-0.039623704 -0.074418165 -0.70496351 0.054864068 -0.95086479 -0.30586752 0.01243272
-0.03827665 -0.074452683 -0.70497555 0.042687874 -0.95318103 -0.30025133 0.0098625543
-0.036929544 -0.074510142 -0.7049942 0.031708192 -0.95469785 -0.2962991 0.0073647345
-0.035584155 -0.074583434 -0.70501715 0.019304086 -0.95572126 -0.29380858 0.0052061318
-0.034241159 -0.074677683 -0.70504582 0.0073813801 -0.95673293 -0.29091215 0.0030383249
-0.032899704 -0.074741796 -0.70506525 0.00047813437 -0.95704556 -0.28995028 0.0021828203
-0.031557616 -0.074776374 -0.70507604 -0.0019244167 -0.95682913 -0.29065782 0.0020969305
-0.030215243 -0.07478819 -0.70508033 -0.0029053965 -0.95639461 -0.29208362 0.0020401585
-0.02887265 -0.074790336 -0.7050814 -0.0031962341 -0.95611739 -0.29299536 0.0020367606
-0.027529517 -0.074774437 -0.70507711 -0.0023094742 -0.95569223 -0.29440287 0.0020411101
-0.012753582 -0.074760824 -0.70507205 0.013379166 -0.95579809 -0.29373285 0.0023211041
-0.011410972 -0.074739628 -0.70506519 0.014363289 -0.95582628 -0.29358578 0.0023347388
0.0060443147 -0.074322157 -0.70494103 -0.00060789275 -0.95997488 -0.28021482 0.0030063353
0.01816248 -0.073906519 -0.70478624 -0.032262865 -0.95232785 -0.30473074 0.0080042584
0.019513553 -0.073857822 -0.70475996 -0.037883833 -0.95002401 -0.31173977 0.0097713452
0.059465423 -0.0755836 -0.70580351 -0.28252223 -0.67671424 -0.69882339 0.045753494
0.060731608 -0.075833894 -0.70600575 -0.29850808 -0.65331805 -0.72162288 0.046596438
-0.015423831 -0.07465446 -0.70545691 0.010423435 -0.95584857 -0.29370204 0.0022583418
0.01408096 -0.073978834 -0.70524126 -0.014878199 -0.9579767 -0.28660721 0.0038600899
0.015420523 -0.073937565 -0.70523423 -0.018791547 -0.95690823 -0.29003844 0.0044542532
0.016759709 -0.073904894 -0.70523053 -0.022842083 -0.95560336 -0.29421905 0.0052795946
0.018097809 -0.073861085 -0.7052241 -0.028661609 -0.95377922 -0.2998977 0.0064361338
0.019437937 -0.07382115 -0.7052179 -0.033720598 -0.95196897 -0.30539852 0.0075843697
0.019386044 -0.073794425 -0.70564473 -0.030193398 -0.95405883 -0.29871675 0.0060545173
0.062966727 -0.096280769 -0.70430839 0.72385597 -0.73095781 1.1344237 0.033719897
0.063894823 -0.096548282 -0.70513749 0.71202457 -0.74923354 1.1093068 0.031031163
-0.065676056 -0.094942443 -0.70349312 1.4197624 0.5346567 -0.76442772 0.041974172
0.063330628 -0.094679788 -0.70357966 0.72860384 -0.63509315 1.1638315 0.036958639
-0.066228449 -0.093120329 -0.7030462 1.3978101 0.37752858 -0.78545022 0.04358666
0.06362766 -0.093037404 -0.70295042 0.71664315 -0.52406365 1.1710917 0.039801717
-0.066554151 -0.091406748 -0.70276093 1.3537389 0.23405081 -0.78956401 0.043765713
0.063855328 -0.091390416 -0.7024473 0.70153522 -0.40160605 1.1784428 0.042386387
-0.06703262 -0.091093481 -0.70351917 1.3584265 0.2255937 -0.80195326 0.044949252
-0.066733249 -0.089792512 -0.7025888 1.2975961 0.096283548 -0.78675455 0.044784483
0.06500981 -0.090287961 -0.70285147 0.69388479 -0.33096659 1.1862775 0.043725427
0.066013135 -0.090762772 -0.70360231 0.7004329 -0.38036916 1.1864157 0.043333184
-0.067177944 -0.089632124 -0.70340228 1.3116463 0.11457529 -0.80139667 0.04500268
0.065098576 -0.088781245 -0.7026428 0.6743772 -0.2101872 1.1829673 0.045627035
0.066136219 -0.089281641 -0.7033323 0.68296516 -0.26221159 1.1859331 0.045213591
0.065129615 -0.087355338 -0.70256394 0.64854306 -0.10595091 1.163542 0.046593528
0.0662027 -0.087846003 -0.70318294 0.65462726 -0.15824255 1.1612325 0.046046443
0.065122649 -0.086004905 -0.70257717 0.62054557 -0.015863007 1.1362807 0.047647312
0.066218086 -0.08649186 -0.70314997 0.63069916 -0.062417969 1.1437718 0.047439415
0.065068126 -0.084754206 -0.70270139 0.59242439 0.072987624 1.1084307 0.048022099
0.066185132 -0.085233711 -0.70322907 0.60530406 0.028825067 1.1220269 0.04812859
-0.06764175 -0.085739367 -0.70429039 1.1386791 -0.13298598 -0.76159585 0.046413265
0.064985812 -0.083591215 -0.70289832 0.56379926 0.1504854 1.0773406 0.047859699
0.066129915 -0.084028482 -0.70336241 0.57553744 0.10726833 1.0881976 0.047794994
-0.067536078 -0.084640965 -0.70441878 1.0823067 -0.19690725 -0.74299073 0.04672575
0.064887464 -0.08249028 -0.70313728 -0.53267139 -0.21986485 -1.03952 0.047471773
0.066034794 -0.082941756 -0.70359844 0.54778737 0.18155603 1.0583949 0.048052665
0.064783022 -0.081415825 -0.70339167 -0.50048119 -0.28166077 -0.99761379 0.047726881
0.065946311 -0.081826359 -0.70381254 -0.51455623 -0.24581921 -1.015449 0.048122689
-0.066410087 -0.08193256 -0.70429772 0.91795188 -0.38458687 -0.68748409 0.045818418
0.064647123 -0.080452234 -0.70373344 -0.47193927 -0.34224957 -0.95940673 0.047842037
0.065826721 -0.080834165 -0.70412087 -0.48606166 -0.30712706 -0.98019236 0.048408579
0.063301913 -0.079170384 -0.70375913 -0.4267396 -0.4298723 -0.89651352 0.047984675
0.064502634 -0.079503752 -0.70409101 -0.44000959 -0.39853048 -0.91559297 0.048259582
0.033249751 -0.074465878 -0.70161623 -0.12270956 -0.88643473 -0.44841594 0.039474428
0.034594435 -0.074514769 -0.7016173 -0.1301626 -0.87811536 -0.46178558 0.04021639
0.035945695 -0.074561886 -0.70161813 -0.13729054 -0.87022531 -0.47415027 0.040526308
0.037295688 -0.074623674 -0.70161569 -0.14561217 -0.86119503 -0.48773816 0.041326784
0.038648903 -0.074660964 -0.70160645 -0.15265179 -0.8521322 -0.50117224 0.042503316
0.040001299 -0.074718043 -0.70161444 -0.16049697 -0.84282863 -0.51425886 0.043148339
0.061895706 -0.078133367 -0.70396447 -0.38832954 -0.50671488 -0.84672153 0.047824897
0.063113622 -0.078426123 -0.70424652 -0.40231937 -0.4787302 -0.86450565 0.048238724
-0.055528365 -0.075802095 -0.70306504 0.33414844 -0.83790618 -0.44390714 0.040713001
-0.054244526 -0.075608648 -0.70297927 0.29766342 -0.85692322 -0.42730525 0.039557148
-0.052921649 -0.075537756 -0.70295018 0.26721555 -0.87312299 -0.412514 0.038271204
-0.051605787 -0.07542894 -0.70290577 0.23846866 -0.8867557 -0.39816675 0.036598779
-0.050283499 -0.075337365 -0.70286983 0.21258295 -0.89829087 -0.3852714 0.034839932
-0.0489638 -0.075225808 -0.70282716 0.18800791 -0.90865016 -0.37291148 0.033007506
-0.047645997 -0.075102136 -0.70278078 0.16698779 -0.91742063 -0.36147365 0.031776063
-0.043631934 -0.07495527 -0.70273662 0.11383676 -0.93633932 -0.33442402 0.026258079
-0.042290468 -0.074913345 -0.70272553 0.097341485 -0.94134581 -0.32632914 0.024263695
-0.040929776 -0.074952751 -0.70275122 0.080561087 -0.94575578 -0.31740615 0.020053079
-0.039570242 -0.074995816 -0.70277625 0.06519872 -0.94940406 -0.30914834 0.015562586
-0.038212199 -0.075050242 -0.70280021 0.051651947 -0.95151478 -0.30442721 0.012235033
-0.036855139 -0.075120851 -0.70282829 0.037711199 -0.95340711 -0.29990426 0.0091191735
-0.035504125 -0.075180434 -0.7028501 0.026265305 -0.95455617 -0.29715079 0.0069606425
-0.034154944 -0.075259052 -0.70287585 0.014555256 -0.95517308 -0.29579669 0.0049915025
-0.032808151 -0.075351655 -0.70290577 0.002314002 -0.95584244 -0.29388413 0.0028255468
-0.031466849 -0.075403072 -0.70292169 -0.0029950021 -0.95586032 -0.29381263 0.0020701697
-0.030127464 -0.075425997 -0.70292866 -0.0039084586 -0.95574683 -0.29417324 0.0020398905
-0.023433702 -0.075377733 -0.70291221 0.0011247291 -0.95464736 -0.29775259 0.002083061
-0.022095149 -0.075388923 -0.70291579 0.002399937 -0.95459211 -0.29791987 0.0020826862
-0.020756356 -0.075416282 -0.70292449 0.0034682292 -0.95463389 -0.29777327 0.002119435
-0.014062968 -0.075472839 -0.70294243 0.012779489 -0.95440745 -0.29824501 0.0021438552
-0.012724306 -0.075452805 -0.70293629 0.013522159 -0.95445329 -0.29806075 0.0021950004
-0.011385802 -0.075440325 -0.70293254 0.01514558 -0.95437264 -0.29823935 0.0022166211
-0.010047548 -0.075417541 -0.70292616 0.016547047 -0.95485258 -0.29662699 0.0022680275
-0.0087093115 -0.075412668 -0.70292491 0.019515 -0.95478374 -0.29667327 0.0022915106
-0.0073706517 -0.07541237 -0.70292497 0.021698 -0.95448834 -0.29748175 0.0023586829
-0.0060319365 -0.075400256 -0.70292175 0.022462673 -0.95463276 -0.29697859 0.0024502212
-0.0046931426 -0.075353317 -0.7029084 0.020142915 -0.95559424 -0.29403576 0.00255016
-0.0020139231 -0.075280286 -0.70288837 0.014544561 -0.95720553 -0.28908303 0.0027204233
-0.00067402743 -0.075249836 -0.70288026 0.013292698 -0.95759207 -0.28788713 0.002654694
0.0020086803 -0.075126238 -0.70284814 0.0056425044 -0.95943856 -0.28200701 0.002816631
