# .PCD v0.7 - Point Cloud Data file format
VERSION 0.7
FIELDS x y z rgba
SIZE 4 4 4 4
TYPE F F F U
COUNT 1 1 1 1
WIDTH 1036
HEIGHT 1
VIEWPOINT 0 0 0 1 0 0 0
POINTS 1036
DATA ascii
0.099422775 -0.043057151 -0.82200003 15456224
0.10098849 -0.043057151 -0.82200003 15260889
0.10255421 -0.043057151 -0.82200003 15326682
0.097857065 -0.041491438 -0.82200003 14931679
0.099422783 -0.041491438 -0.82200003 13155268
0.1009885 -0.041491438 -0.82200003 12561818
0.097857065 -0.039925721 -0.82200003 13811903
0.099422783 -0.039925721 -0.82200003 12101285
0.099180877 -0.04920001 -0.82000005 14203783
0.096057065 -0.047638107 -0.82000005 14005331
0.097618975 -0.047638107 -0.82000005 13742178
0.06169517 -0.046076197 -0.82000005 13743926
0.074190393 -0.046076201 -0.82000005 13873738
0.094495162 -0.046076201 -0.82000005 13742670
0.096057065 -0.046076201 -0.82000005 13545291
0.097618975 -0.046076201 -0.82000005 13216576
0.063257068 -0.044514291 -0.82000005 14072165
0.064818971 -0.044514295 -0.82000005 14072165
0.071066588 -0.044514295 -0.82000005 13938766
0.072628491 -0.044514295 -0.82000005 13807943
0.097618975 -0.044514295 -0.82000005 14269594
0.098938964 -0.047521915 -0.81800002 13347420
0.063102774 -0.045963813 -0.81800002 13808940
0.098938964 -0.045963816 -0.81800002 13084990
0.098938964 -0.044405721 -0.81800002 15388075
0.039731357 -0.042847622 -0.81800002 13812928
0.10037421 -0.049020007 -0.81700003 14139030
0.087924689 -0.047463819 -0.81700003 14005585
0.089480869 -0.047463819 -0.81700003 13939792
0.10037421 -0.047463819 -0.81700003 12953418
-0.017896265 -0.04590762 -0.81700003 12231345
0.033458021 -0.045907624 -0.81700003 14932951
0.070806585 -0.045907628 -0.81700003 13741649
0.072362781 -0.045907628 -0.81700003 13742152
0.10037421 -0.045907628 -0.81700003 13218856
-0.017896265 -0.044351429 -0.81700003 14668743
-0.011671504 -0.044351429 -0.81700003 13091022
0.033458021 -0.044351432 -0.81700003 13748427
0.041238975 -0.044351432 -0.81700003 13352370
0.042795163 -0.044351432 -0.81700003 13944507
0.10037421 -0.044351436 -0.81700003 15720383
0.036570404 -0.042795241 -0.81700003 14010827
0.038126592 -0.042795241 -0.81700003 13812928
0.10168087 -0.048900012 -0.81500006 14204823
0.062871352 -0.047347628 -0.81500006 14136113
0.090814203 -0.047347631 -0.81500006 13873736
0.10168087 -0.047347631 -0.81500006 13545555
-0.020957218 -0.04579524 -0.81500006 11638168
-0.019404838 -0.04579524 -0.81500006 12032926
-0.016300077 -0.04579524 -0.81500006 12033966
-0.014747695 -0.04579524 -0.81500006 11971003
-0.013195314 -0.04579524 -0.81500006 11247280
-0.011642933 -0.04579524 -0.81500006 11574453
0.028718974 -0.045795243 -0.81500006 14208967
0.030271355 -0.045795243 -0.81500006 14472139
0.031823736 -0.045795243 -0.81500006 14603986
0.034928501 -0.045795243 -0.81500006 14866647
0.041138023 -0.045795243 -0.81500006 14535599
0.10168087 -0.045795247 -0.81500006 14205751
-0.020957218 -0.044242859 -0.81500006 14666925
-0.019404838 -0.044242859 -0.81500006 14601132
-0.016300077 -0.044242859 -0.81500006 14734536
-0.014747695 -0.044242859 -0.81500006 14209228
-0.013195314 -0.044242859 -0.81500006 13880263
0.030271355 -0.044242863 -0.81500006 13946319
0.031823736 -0.044242863 -0.81500006 13945806
0.034928501 -0.044242863 -0.81500006 13418179
0.039585643 -0.044242863 -0.81500006 13549767
0.044242784 -0.044242863 -0.81500006 14469563
0.045795165 -0.044242863 -0.81500006 14535356
0.047347549 -0.044242863 -0.81500006 14866122
0.10168087 -0.044242866 -0.81500006 15786176
-0.019404838 -0.042690478 -0.81500006 14928304
-0.017808648 -0.047231432 -0.81300002 14337984
-0.016260074 -0.047231432 -0.81300002 14469570
0.042585641 -0.045682862 -0.81300002 14601392
0.10297992 -0.045682866 -0.81300002 14076091
0.036391355 -0.044134289 -0.81300002 13747144
0.037939928 -0.044134289 -0.81300002 13681353
0.10297992 -0.044134293 -0.81300002 15459295
0.10297993 -0.042585723 -0.81300002 14471119
0.090368494 -0.04866001 -0.81100005 13545034
0.10272659 -0.04866001 -0.81100005 13549476
0.10427135 -0.04866001 -0.81100005 14010027
0.10272659 -0.047115248 -0.81100005 13086592
0.10427135 -0.047115248 -0.81100005 15191968
-0.010041027 -0.045570478 -0.81100005 11442867
-0.0084962649 -0.045570478 -0.81100005 12231856
-0.0069515039 -0.045570478 -0.81100005 13416130
-0.005406742 -0.045570478 -0.81100005 13156022
0.036301829 -0.045570482 -0.81100005 14932440
0.037846595 -0.045570482 -0.81100005 14799832
0.039391357 -0.045570482 -0.81100005 14536660
0.044025641 -0.045570482 -0.81100005 14797991
-0.010041027 -0.044025715 -0.81100005 14077917
-0.0084962649 -0.044025715 -0.81100005 14406357
0.054703739 -0.054703817 -0.80900002 13676609
0.050080877 -0.050080955 -0.80900002 13939529
0.048539929 -0.048540007 -0.80900002 14071608
0.050080877 -0.048540007 -0.80900002 14005324
0.082440883 -0.048540011 -0.80900002 13806914
0.088604689 -0.048540011 -0.80900002 13544771
-0.014639122 -0.046999045 -0.80900002 14471119
-0.01309817 -0.046999045 -0.80900002 12497329
-0.011557218 -0.046999045 -0.80900002 12757405
-0.010016265 -0.046999045 -0.80900002 12757405
-0.008475313 -0.046999045 -0.80900002 12625574
-0.0069343606 -0.046999045 -0.80900002 14007227
-0.0053934082 -0.046999045 -0.80900002 13749188
0.04699897 -0.046999048 -0.80900002 14070634
0.048539929 -0.046999048 -0.80900002 14004841
0.050080877 -0.046999048 -0.80900002 14070604
0.045458023 -0.045458101 -0.80900002 14534819
0.04699897 -0.045458101 -0.80900002 14204331
0.048539929 -0.045458101 -0.80900002 13743780
0.050080877 -0.045458101 -0.80900002 13547609
0.10401421 -0.045458104 -0.80900002 15786709
0.048539929 -0.043917146 -0.80900002 14668743
0.050080877 -0.043917146 -0.80900002 14603189
0.10401421 -0.043917149 -0.80900002 14011849
0.10555516 -0.043917149 -0.80900002 12695482
0.10709612 -0.043917153 -0.80900002 11445415
0.10401422 -0.042376202 -0.80900002 12234157
0.10555517 -0.042376202 -0.80900002 11573656
0.04995707 -0.053031433 -0.80700004 13215522
0.051494215 -0.053031433 -0.80700004 13544487
0.053031355 -0.053031433 -0.80700004 13675062
0.054568499 -0.053031433 -0.80700004 13806648
0.080699928 -0.053031437 -0.80700004 14208451
0.082237072 -0.053031437 -0.80700004 14603209
0.04995707 -0.051494293 -0.80700004 13873990
0.051494215 -0.051494293 -0.80700004 14005576
0.053031355 -0.051494293 -0.80700004 13675858
0.054568499 -0.051494293 -0.80700004 13610065
0.080699928 -0.051494297 -0.80700004 14534029
0.082237072 -0.051494297 -0.80700004 14731408
0.046882782 -0.049957149 -0.80700004 14137149
0.04841993 -0.049957149 -0.80700004 14137149
0.080699928 -0.049957152 -0.80700004 13938517
0.082237072 -0.049957152 -0.80700004 14004310
0.083774216 -0.049957152 -0.80700004 13938544
0.085311353 -0.049957152 -0.80700004 13938544
0.086848497 -0.049957152 -0.80700004 13938564
0.088385649 -0.049957152 -0.80700004 14135943
-0.014602933 -0.048420005 -0.80700004 13616332
-0.013065791 -0.048420005 -0.80700004 12234679
-0.011528648 -0.048420005 -0.80700004 13812100
-0.0099915043 -0.048420005 -0.80700004 15456925
-0.0084543619 -0.048420005 -0.80700004 15064028
-0.0069172182 -0.048420005 -0.80700004 15129821
-0.005380075 -0.048420005 -0.80700004 14670556
0.045345642 -0.048420008 -0.80700004 14006837
0.046882782 -0.048420008 -0.80700004 13940022
0.080699928 -0.048420012 -0.80700004 13872707
0.083774216 -0.048420012 -0.80700004 13675848
0.085311353 -0.048420012 -0.80700004 13807434
0.086848497 -0.048420012 -0.80700004 13610564
-0.022288647 -0.046882853 -0.80700004 12233916
-0.020751504 -0.046882857 -0.80700004 12887721
-0.019214362 -0.046882857 -0.80700004 13479858
-0.0038429322 -0.046882857 -0.80700004 12301742
-0.0023057889 -0.046882857 -0.80700004 11053458
0.043808497 -0.04688286 -0.80700004 14270589
0.045345642 -0.04688286 -0.80700004 13875831
0.051494215 -0.04688286 -0.80700004 14004811
0.053031355 -0.04688286 -0.80700004 14070854
0.054568499 -0.04688286 -0.80700004 14070854
0.056105644 -0.04688286 -0.80700004 14005565
0.0099913543 -0.045345716 -0.80700004 14801626
0.051494215 -0.04534572 -0.80700004 13350230
0.053031355 -0.04534572 -0.80700004 13612356
0.054568499 -0.04534572 -0.80700004 13612356
0.10529421 -0.045345724 -0.80700004 15327468
0.10683136 -0.045345727 -0.80700004 15459054
0.1083685 -0.045345727 -0.80700004 15129823
0.051494215 -0.043808576 -0.80700004 14537396
0.053031355 -0.043808576 -0.80700004 14602169
0.078966603 -0.052900013 -0.80500007 14666683
0.083566599 -0.052900013 -0.80500007 14406861
-0.0069000758 -0.051366672 -0.80500007 14603997
0.078966603 -0.051366679 -0.80500007 14598804
0.083566599 -0.051366679 -0.80500007 14666933
-0.0069000754 -0.049833339 -0.80500007 14735581
0.045233261 -0.049833342 -0.80500007 14268221
0.051366597 -0.049833342 -0.80500007 14005322
0.052899931 -0.049833342 -0.80500007 13873484
0.089699931 -0.049833346 -0.80500007 14136715
-0.016100075 -0.048300002 -0.80500007 13815247
0.043699928 -0.048300005 -0.80500007 13875251
0.051366597 -0.048300005 -0.80500007 14005324
0.052899931 -0.048300005 -0.80500007 14070858
0.10503327 -0.046766676 -0.80500007 14801117
-0.043700077 -0.045233332 -0.80500007 13875366
-0.042166747 -0.045233332 -0.80500007 13876922
-0.04063341 -0.045233332 -0.80500007 14074301
-0.039100077 -0.045233332 -0.80500007 14272182
-0.037566744 -0.045233332 -0.80500007 14732733
-0.036033411 -0.045233332 -0.80500007 14865105
0.011499926 -0.045233335 -0.80500007 14933212
0.077240884 -0.052768581 -0.80300003 13942960
0.084888496 -0.051239058 -0.80300003 14995898
0.086418025 -0.051239058 -0.80300003 14865107
-0.014530552 -0.049709525 -0.80300003 12168632
-0.013001028 -0.049709525 -0.80300003 12497597
-0.011471503 -0.049709525 -0.80300003 14403772
-0.0099419793 -0.049709525 -0.80300003 15588046
-0.0084124552 -0.049709525 -0.80300003 15064546
-0.0053534079 -0.049709525 -0.80300003 14537943
0.078770399 -0.049709532 -0.80300003 14003808
-0.017589599 -0.048179999 -0.80300003 13683661
0.042061832 -0.048180003 -0.80300003 13677629
0.077240884 -0.048180006 -0.80300003 13544773
0.078770399 -0.048180006 -0.80300003 13676359
0.091006599 -0.048180006 -0.80300003 13873999
0.10477231 -0.048180006 -0.80300003 14011079
-0.043591507 -0.046650473 -0.80300003 13548729
-0.042061981 -0.046650473 -0.80300003 14140868
-0.040532459 -0.046650473 -0.80300003 14798798
-0.039002933 -0.046650473 -0.80300003 14472143
-0.037473407 -0.046650473 -0.80300003 14669522
-0.035943884 -0.046650473 -0.80300003 14604499
0.0099418312 -0.046650477 -0.80300003 14472663
0.011471355 -0.046650477 -0.80300003 14670042
0.042061832 -0.04665048 -0.80300003 14468490
0.060416121 -0.04665048 -0.80300003 13939770
0.091006599 -0.046650484 -0.80300003 13939529
0.092536114 -0.046650484 -0.80300003 13939538
0.10630184 -0.046650484 -0.80300003 15327461
0.10783136 -0.046650488 -0.80300003 15394281
-0.026766742 -0.045120951 -0.80300003 14997715
0.013000879 -0.045120955 -0.80300003 14801624
0.08467707 -0.052637156 -0.80100006 14341068
0.086202793 -0.052637156 -0.80100006 14340562
-0.016020074 -0.05111143 -0.80100006 14605022
-0.01449436 -0.05111143 -0.80100006 14670042
0.077048503 -0.051111437 -0.80100006 14335632
0.0877285 -0.051111437 -0.80100006 15259865
0.089254223 -0.051111437 -0.80100006 14865618
-0.041957222 -0.049585711 -0.80100006 14471380
-0.040431507 -0.049585711 -0.80100006 14734552
-0.016020074 -0.049585715 -0.80100006 11646392
0.043482784 -0.049585719 -0.80100006 14202428
0.054162789 -0.049585719 -0.80100006 14070863
0.061791357 -0.049585719 -0.80100006 13939277
0.063317068 -0.049585719 -0.80100006 13873484
0.077048503 -0.049585722 -0.80100006 13872222
0.09077993 -0.049585722 -0.80100006 14399887
0.10298565 -0.049585722 -0.80100006 14142658
0.10451136 -0.049585722 -0.80100006 14142667
-0.041957222 -0.04806 -0.80100006 14668759
-0.040431507 -0.04806 -0.80100006 15063517
-0.038905788 -0.04806 -0.80100006 14669268
-0.037380077 -0.04806 -0.80100006 14471889
-0.035854362 -0.04806 -0.80100006 14406350
-0.020597218 -0.048060004 -0.80100006 14735074
-0.019071504 -0.048060004 -0.80100006 14274523
-0.0038143601 -0.048060004 -0.80100006 14538970
-0.0022886458 -0.048060004 -0.80100006 14604763
0.0083913552 -0.048060004 -0.80100006 14866908
0.0099170692 -0.048060004 -0.80100006 14603484
0.011442783 -0.048060004 -0.80100006 14603484
0.012968497 -0.048060004 -0.80100006 14669788
0.035854213 -0.048060007 -0.80100006 13481544
0.037379928 -0.048060007 -0.80100006 13612347
0.054162789 -0.048060007 -0.80100006 14070858
0.0556885 -0.048060007 -0.80100006 14202946
0.057214215 -0.048060007 -0.80100006 14202946
0.05873993 -0.048060007 -0.80100006 14137401
0.060265642 -0.048060007 -0.80100006 13940022
0.061791357 -0.048060007 -0.80100006 14005061
0.095357075 -0.048060011 -0.80100006 14137990
0.10603707 -0.048060011 -0.80100006 13945286
-0.046534363 -0.046534285 -0.80100006 13351084
-0.045008648 -0.046534285 -0.80100006 13417143
-0.034328647 -0.046534285 -0.80100006 14736085
-0.032802932 -0.046534285 -0.80100006 14801365
0.012968498 -0.046534289 -0.80100006 14735322
0.014494212 -0.046534289 -0.80100006 14998494
0.016019925 -0.046534289 -0.80100006 14341600
0.028225642 -0.046534292 -0.80100006 14603459
0.029751357 -0.046534292 -0.80100006 14471873
0.031277072 -0.046534292 -0.80100006 14668730
0.035854213 -0.046534292 -0.80100006 14470835
0.037379928 -0.046534292 -0.80100006 14403759
0.038905639 -0.046534292 -0.80100006 14337966
0.040431358 -0.046534292 -0.80100006 14600076
0.057214215 -0.046534292 -0.80100006 14137151
0.05873993 -0.046534292 -0.80100006 14137149
-0.029751506 -0.04500857 -0.80100006 14997204
-0.028225791 -0.04500857 -0.80100006 15062997
0.014494212 -0.045008574 -0.80100006 15064796
0.016019925 -0.045008574 -0.80100006 14407132
0.1090885 -0.045008585 -0.80100006 13221826
0.11061422 -0.045008585 -0.80100006 12100272
0.031198973 -0.054027621 -0.79900002 13874747
-0.015980076 -0.052505713 -0.79900002 15064800
-0.01445817 -0.052505713 -0.79900002 14801628
0.031198975 -0.052505717 -0.79900002 12756761
0.087509453 -0.05250572 -0.79900002 14603734
-0.020545788 -0.050983809 -0.79900002 14735833
-0.019023884 -0.050983809 -0.79900002 14801626
-0.01750198 -0.050983809 -0.79900002 14539229
-0.012936265 -0.050983809 -0.79900002 14867421
-0.01141436 -0.050983809 -0.79900002 14866649
-0.0098924553 -0.050983809 -0.79900002 14998235
-0.0083705513 -0.050983809 -0.79900002 14867169
0.031198975 -0.050983813 -0.79900002 13018448
0.073812313 -0.050983816 -0.79900002 13875276
0.075334214 -0.050983816 -0.79900002 14401620
0.090553261 -0.050983816 -0.79900002 14931411
-0.043374363 -0.049461901 -0.79900002 14471893
-0.035764836 -0.049461901 -0.79900002 14274251
-0.020545788 -0.049461905 -0.79900002 14604511
-0.019023884 -0.049461905 -0.79900002 14012374
-0.01750198 -0.049461905 -0.79900002 11843771
0.011414211 -0.049461905 -0.79900002 14472654
0.012936116 -0.049461905 -0.79900002 14538706
0.031198975 -0.049461909 -0.79900002 14071115
0.035764687 -0.049461909 -0.79900002 14071617
0.037286595 -0.049461909 -0.79900002 14137151
0.041852307 -0.049461909 -0.79900002 14071358
0.05554945 -0.049461909 -0.79900002 14071384
0.057071358 -0.049461909 -0.79900002 14005591
0.058593262 -0.049461909 -0.79900002 13808195
0.060115166 -0.049461909 -0.79900002 13873988
0.073812313 -0.049461912 -0.79900002 13347358
0.075334214 -0.049461912 -0.79900002 13939495
0.092075162 -0.049461912 -0.79900002 14270107
0.096640877 -0.049461912 -0.79900002 14402226
0.098162785 -0.049461912 -0.79900002 14404290
0.099684693 -0.049461912 -0.79900002 14404290
0.10120659 -0.049461912 -0.79900002 14142658
0.10577231 -0.049461912 -0.79900002 14011081
0.10729422 -0.049461916 -0.79900002 13748677
-0.043374363 -0.047939997 -0.79900002 14668761
-0.034242932 -0.047939997 -0.79900002 14669522
-0.032721028 -0.047939997 -0.79900002 14472400
-0.031199124 -0.047939997 -0.79900002 14472400
-0.029677218 -0.047939997 -0.79900002 14406357
-0.022067694 -0.047939997 -0.79900002 14866651
0.014458021 -0.047940001 -0.79900002 14801374
0.015979927 -0.047940001 -0.79900002 14998755
0.017501831 -0.047940001 -0.79900002 14998755
0.028155165 -0.047940005 -0.79900002 14665887
0.029677069 -0.047940005 -0.79900002 14007957
0.031198975 -0.047940005 -0.79900002 13547631
0.032720879 -0.047940005 -0.79900002 13350252
0.034242783 -0.047940005 -0.79900002 13547337
0.038808499 -0.047940005 -0.79900002 13743933
0.040330403 -0.047940005 -0.79900002 13809215
0.092075162 -0.047940008 -0.79900002 13874536
0.093597069 -0.047940008 -0.79900002 14335087
0.10729422 -0.047940012 -0.79900002 14406600
-0.049461979 -0.046418093 -0.79900002 13349790
-0.047940075 -0.046418093 -0.79900002 13219498
-0.031199124 -0.046418093 -0.79900002 14735572
-0.029677218 -0.046418093 -0.79900002 14471889
0.017501831 -0.046418097 -0.79900002 13881049
0.032720879 -0.046418101 -0.79900002 14602937
0.034242783 -0.046418101 -0.79900002 14536628
0.10881612 -0.046418108 -0.79900002 14736351
0.11033802 -0.046418108 -0.79900002 13749465
0.11185993 -0.046418108 -0.79900002 11841468
0.11338183 -0.046418108 -0.79900002 11835574
0.032679927 -0.053960003 -0.79800004 14137919
-0.017480072 -0.052440003 -0.79800004 14801628
0.032679927 -0.052440006 -0.79800004 13941035
0.08891993 -0.05244001 -0.79800004 14340562
0.090439931 -0.05244001 -0.79800004 14340562
-0.031160075 -0.050919998 -0.79800004 14340312
-0.022040073 -0.050919998 -0.79800004 14801115
0.02963993 -0.050920006 -0.79800004 12492333
0.032679927 -0.050920006 -0.79800004 14400101
0.034199923 -0.050920006 -0.79800004 14203696
0.091959931 -0.05092001 -0.79800004 14734293
0.10411993 -0.05092001 -0.79800004 14274512
-0.044840075 -0.049399998 -0.79800004 14537686
-0.038760077 -0.049399998 -0.79800004 14537684
-0.037240077 -0.049399998 -0.79800004 14274512
-0.034200072 -0.049399998 -0.79800004 14603216
-0.032680076 -0.049399998 -0.79800004 14274769
-0.031160075 -0.049399998 -0.79800004 14340562
-0.029640075 -0.049399998 -0.79800004 14472148
-0.022040073 -0.049399998 -0.79800004 14866908
0.014439926 -0.049400002 -0.79800004 14407120
0.02963993 -0.049400005 -0.79800004 14071161
0.032679927 -0.049400005 -0.79800004 14202701
0.034199923 -0.049400005 -0.79800004 14137410
0.093479931 -0.049400009 -0.79800004 14270107
0.094999932 -0.049400009 -0.79800004 14007468
0.10867993 -0.049400013 -0.79800004 14603986
0.11019993 -0.049400013 -0.79800004 14867687
-0.049400076 -0.047879998 -0.79800004 14734545
-0.047880076 -0.047879998 -0.79800004 14734552
-0.046360075 -0.047879998 -0.79800004 14734552
-0.044840075 -0.047879998 -0.79800004 14668761
-0.028120073 -0.047879998 -0.79800004 14669529
-0.023560073 -0.047879998 -0.79800004 14603479
-0.00076007401 -0.047880001 -0.79800004 14802142
0.00075992604 -0.047880001 -0.79800004 14735581
0.0022799261 -0.047880001 -0.79800004 14735581
0.10867993 -0.047880013 -0.79800004 15722460
0.11019993 -0.047880013 -0.79800004 15920634
-0.028120073 -0.046359997 -0.79800004 14800854
-0.026600074 -0.046359997 -0.79800004 14735833
-0.025080074 -0.046359997 -0.79800004 14867419
-0.023560073 -0.046359997 -0.79800004 14076120
0.018999929 -0.046360001 -0.79800004 13223884
0.034114216 -0.053824767 -0.79600006 13807945
0.028049452 -0.052308578 -0.79600006 11902464
0.029565644 -0.052308578 -0.79600006 12297216
0.034114216 -0.052308578 -0.79600006 14004795
0.073535167 -0.052308582 -0.79600006 14204575
0.07505136 -0.052308582 -0.79600006 14204575
-0.047760077 -0.050792381 -0.79600006 14406355
-0.046243887 -0.050792381 -0.79600006 14537941
-0.044727698 -0.050792381 -0.79600006 14472661
-0.040179126 -0.050792381 -0.79600006 14471893
-0.038662937 -0.050792381 -0.79600006 14471891
-0.037146743 -0.050792381 -0.79600006 14274512
-0.035630554 -0.050792381 -0.79600006 14208717
-0.034114365 -0.050792381 -0.79600006 14669268
-0.032598175 -0.050792381 -0.79600006 14406105
0.028049452 -0.050792389 -0.79600006 12558126
0.035630405 -0.050792389 -0.79600006 13940524
0.037146594 -0.050792389 -0.79600006 14071619
0.055340882 -0.050792389 -0.79600006 13675608
0.056857072 -0.050792389 -0.79600006 13412436
0.058373261 -0.050792389 -0.79600006 13346881
0.059889454 -0.050792389 -0.79600006 13478467
0.061405644 -0.050792389 -0.79600006 13346382
0.09324564 -0.050792392 -0.79600006 14734293
0.10537517 -0.050792392 -0.79600006 14340305
-0.047760077 -0.049276192 -0.79600006 14603734
-0.046243887 -0.049276192 -0.79600006 14537941
-0.00075816922 -0.049276195 -0.79600006 14933214
0.015919929 -0.049276195 -0.79600006 14669509
0.028049452 -0.049276199 -0.79600006 14334333
0.038662788 -0.049276199 -0.79600006 14137151
0.040178977 -0.049276199 -0.79600006 14137151
0.11143994 -0.049276207 -0.79600006 15130859
-0.026533408 -0.047759999 -0.79600006 14669788
-0.025017217 -0.047759999 -0.79600006 14603995
0.01895231 -0.047760002 -0.79600006 14999007
0.020468501 -0.047760002 -0.79600006 14933214
0.11143994 -0.047760013 -0.79600006 16315391
0.11295613 -0.047760013 -0.79600006 15393013
0.11447231 -0.047760013 -0.79600006 13748188
0.11598851 -0.047760013 -0.79600006 13153723
0.020468501 -0.046243813 -0.79600006 13158091
0.021984691 -0.046243817 -0.79600006 12893377
0.023500882 -0.046243817 -0.79600006 12827584
0.025017072 -0.046243817 -0.79600006 14207161
0.026533263 -0.046243817 -0.79600006 14733505
0.014367545 -0.053689525 -0.79400003 12820295
0.015879925 -0.053689525 -0.79400003 12821552
0.10511041 -0.053689532 -0.79400003 14932694
0.014367545 -0.052177146 -0.79400003 14005370
0.015879927 -0.052177146 -0.79400003 14267467
0.035540879 -0.05217715 -0.79400003 13873209
0.037053261 -0.05217715 -0.79400003 14005574
0.055201832 -0.05217715 -0.79400003 13938241
0.056714214 -0.05217715 -0.79400003 13872448
0.058226593 -0.05217715 -0.79400003 13215558
0.059738975 -0.05217715 -0.79400003 13347144
0.061251357 -0.05217715 -0.79400003 13346902
0.10511041 -0.052177154 -0.79400003 14208978
0.10662279 -0.052177157 -0.79400003 14011599
0.011342783 -0.050664764 -0.79400003 14666662
0.012855164 -0.050664764 -0.79400003 14205348
0.014367545 -0.050664764 -0.79400003 13547418
0.015879927 -0.050664764 -0.79400003 13613394
0.038565643 -0.050664768 -0.79400003 14071619
0.040078022 -0.050664768 -0.79400003 14137151
0.10662279 -0.050664775 -0.79400003 13945808
0.10813517 -0.050664775 -0.79400003 14077394
0.10964755 -0.050664775 -0.79400003 14011849
0.11115993 -0.050664775 -0.79400003 13946056
0.11267231 -0.050664775 -0.79400003 14077390
-0.027979121 -0.049152378 -0.79400003 14537941
-0.02646674 -0.049152378 -0.79400003 14472663
-0.02495436 -0.049152378 -0.79400003 14472663
-0.023441978 -0.049152378 -0.79400003 14537943
-0.0037810262 -0.049152382 -0.79400003 14932701
-0.002268645 -0.049152382 -0.79400003 14999007
0.017392309 -0.049152382 -0.79400003 14735302
0.01890469 -0.049152382 -0.79400003 14471353
0.020417072 -0.049152382 -0.79400003 14405560
0.021929452 -0.049152385 -0.79400003 14863780
0.023441833 -0.049152385 -0.79400003 14797987
0.024954215 -0.049152385 -0.79400003 14599572
0.026466595 -0.049152385 -0.79400003 14402193
0.11267231 -0.049152393 -0.79400003 15261164
0.11418469 -0.049152393 -0.79400003 15129578
0.021929452 -0.047640007 -0.79400003 14537162
0.023441833 -0.047640007 -0.79400003 14471369
0.024954215 -0.047640007 -0.79400003 14666933
0.026466595 -0.047640007 -0.79400003 14601140
0.017348498 -0.05506286 -0.79200006 13151748
0.018857069 -0.05506286 -0.79200006 13412928
0.023382785 -0.055062864 -0.79200006 14398281
0.027908498 -0.055062864 -0.79200006 14072130
0.017348498 -0.053554289 -0.79200006 13347896
0.018857069 -0.053554289 -0.79200006 13543494
0.023382785 -0.053554293 -0.79200006 13545023
0.027908498 -0.053554293 -0.79200006 13743924
0.02941707 -0.053554293 -0.79200006 13875510
0.035451356 -0.053554293 -0.79200006 13610566
0.036959928 -0.053554293 -0.79200006 13807945
0.055062786 -0.053554293 -0.79200006 13875251
0.056571357 -0.053554293 -0.79200006 14401595
0.058079928 -0.053554293 -0.79200006 14270078
0.059588499 -0.053554293 -0.79200006 14533250
0.061097074 -0.053554293 -0.79200006 14533522
0.10635421 -0.053554296 -0.79200006 14669781
0.10786279 -0.0535543 -0.79200006 14669781
0.10937136 -0.0535543 -0.79200006 14603734
0.11087994 -0.0535543 -0.79200006 14603734
-0.012822932 -0.052045718 -0.79200006 14604249
0.012822784 -0.052045718 -0.79200006 14268542
0.0173485 -0.052045718 -0.79200006 13609537
0.018857071 -0.052045718 -0.79200006 13608747
0.020365642 -0.052045718 -0.79200006 13740333
0.021874215 -0.052045722 -0.79200006 13085485
0.023382787 -0.052045722 -0.79200006 12822313
0.024891358 -0.052045722 -0.79200006 11903237
0.026399929 -0.052045722 -0.79200006 12100616
0.038468499 -0.052045722 -0.79200006 14005574
0.03997707 -0.052045722 -0.79200006 13742904
0.062605649 -0.052045722 -0.79200006 13478488
0.091268502 -0.052045725 -0.79200006 14077905
0.10786279 -0.052045729 -0.79200006 14143185
0.10937136 -0.052045729 -0.79200006 14143183
0.11087994 -0.052045729 -0.79200006 13945804
0.11238851 -0.052045729 -0.79200006 13682632
0.11389708 -0.052045729 -0.79200006 14143183
-0.026400074 -0.050537143 -0.79200006 14472150
-0.024891503 -0.050537143 -0.79200006 14472150
-0.023382932 -0.050537143 -0.79200006 14472150
-0.0052800742 -0.050537147 -0.79200006 14603995
-0.0037715023 -0.050537147 -0.79200006 14669788
0.0173485 -0.050537147 -0.79200006 13416015
0.018857071 -0.050537147 -0.79200006 13547058
0.020365642 -0.050537147 -0.79200006 13612851
0.021874215 -0.05053715 -0.79200006 13284667
0.023382787 -0.05053715 -0.79200006 13021495
0.024891358 -0.05053715 -0.79200006 12296529
0.026399929 -0.05053715 -0.79200006 12099150
0.041485641 -0.05053715 -0.79200006 14137151
0.094285645 -0.050537154 -0.79200006 14668757
0.095794216 -0.050537154 -0.79200006 14800343
0.11389708 -0.050537158 -0.79200006 15064285
0.11540565 -0.050537158 -0.79200006 15393777
0.0098056411 -0.049028575 -0.79200006 14406861
0.11540565 -0.049028587 -0.79200006 14537702
0.11691422 -0.049028587 -0.79200006 12827084
0.11842279 -0.049028587 -0.79200006 12165813
0.11059993 -0.056428581 -0.79000002 11443889
0.020314211 -0.05492381 -0.79000002 13741893
0.021818973 -0.054923814 -0.79000002 14464074
0.024828497 -0.054923814 -0.79000002 14071360
0.026333259 -0.054923814 -0.79000002 14202946
0.05943802 -0.054923814 -0.79000002 14469050
0.060942784 -0.054923814 -0.79000002 14272695
0.11059993 -0.054923821 -0.79000002 14866908
0.11210469 -0.054923821 -0.79000002 14801115
-0.039876267 -0.053419042 -0.79000002 14735322
-0.038371503 -0.053419042 -0.79000002 14471893
-0.036866743 -0.053419042 -0.79000002 14406100
-0.014295312 -0.053419046 -0.79000002 14998235
-0.01279055 -0.053419046 -0.79000002 14866649
0.020314211 -0.053419046 -0.79000002 13082943
0.021818973 -0.05341905 -0.79000002 13545023
0.024828497 -0.05341905 -0.79000002 13546045
0.026333259 -0.05341905 -0.79000002 13875010
0.038371354 -0.05341905 -0.79000002 13939531
0.039876118 -0.05341905 -0.79000002 13610816
0.062447544 -0.05341905 -0.79000002 14599315
0.072980881 -0.053419054 -0.79000002 14207445
0.11210469 -0.053419057 -0.79000002 14603736
0.11360945 -0.053419057 -0.79000002 14603736
-0.039876267 -0.051914282 -0.79000002 14406357
-0.038371503 -0.051914282 -0.79000002 14471891
-0.036866743 -0.051914282 -0.79000002 14340305
-0.018809596 -0.051914286 -0.79000002 14669529
-0.011285788 -0.051914286 -0.79000002 14537684
-0.0097810263 -0.051914286 -0.79000002 14800856
0.011285641 -0.051914286 -0.79000002 14729102
0.041380879 -0.05191429 -0.79000002 13808697
0.042885642 -0.05191429 -0.79000002 13742143
0.09254279 -0.051914293 -0.79000002 14275284
0.11511421 -0.051914297 -0.79000002 14406368
0.00075230747 -0.050409522 -0.79000002 15129821
0.0022570693 -0.050409522 -0.79000002 15327200
0.008276117 -0.050409522 -0.79000002 14601912
0.0097808791 -0.050409522 -0.79000002 14798248
0.042885642 -0.050409526 -0.79000002 14071358
0.097057074 -0.050409529 -0.79000002 14471382
0.098561831 -0.050409529 -0.79000002 14405589
0.10006659 -0.050409529 -0.79000002 14340307
0.10157135 -0.050409529 -0.79000002 14406100
-0.062447693 -0.048904762 -0.79000002 13549756
0.00075230765 -0.048904765 -0.79000002 14998494
0.0022570696 -0.048904765 -0.79000002 14932701
0.008276117 -0.048904765 -0.79000002 14472400
0.10581708 -0.054784771 -0.78800005 14801367
0.10731802 -0.054784775 -0.78800005 14867160
0.10881898 -0.054784775 -0.78800005 14866908
0.11332183 -0.054784775 -0.78800005 14669529
-0.035272453 -0.053283807 -0.78800005 14274514
-0.018761979 -0.053283811 -0.78800005 14603736
-0.011257217 -0.053283811 -0.78800005 14800084
-0.0097562643 -0.053283811 -0.78800005 14734291
0.041276123 -0.053283814 -0.78800005 13610816
-0.035272453 -0.051782854 -0.78800005 14208206
-0.0337715 -0.051782854 -0.78800005 14405585
-0.032270551 -0.051782854 -0.78800005 14340566
-0.030769598 -0.051782854 -0.78800005 14274773
-0.029268647 -0.051782854 -0.78800005 14340562
-0.027767694 -0.051782854 -0.78800005 14472148
-0.026266741 -0.051782854 -0.78800005 14472152
-0.024765788 -0.051782854 -0.78800005 14537945
-0.023264837 -0.051782854 -0.78800005 14603736
-0.021763884 -0.051782854 -0.78800005 14735322
-0.020262931 -0.051782858 -0.78800005 14603736
-0.0082553122 -0.051782858 -0.78800005 14735574
-0.0067543597 -0.051782858 -0.78800005 14538195
0.003752308 -0.051782858 -0.78800005 14404270
0.00525326 -0.051782858 -0.78800005 14470063
0.0067542125 -0.051782858 -0.78800005 14928035
0.0082551651 -0.051782858 -0.78800005 14599070
0.0097561171 -0.051782858 -0.78800005 14794895
0.093809456 -0.051782865 -0.78800005 14341077
0.095310405 -0.051782865 -0.78800005 14406870
-0.062289599 -0.050281901 -0.78800005 14800345
-0.060788643 -0.050281901 -0.78800005 14931931
-0.029268647 -0.050281901 -0.78800005 14340564
-0.027767694 -0.050281901 -0.78800005 14472150
-0.0022515019 -0.050281905 -0.78800005 14866908
-0.00075054955 -0.050281905 -0.78800005 14932701
0.003752308 -0.050281905 -0.78800005 14866131
0.0052532605 -0.050281905 -0.78800005 14734545
0.006754213 -0.050281905 -0.78800005 14996670
0.044278029 -0.050281908 -0.78800005 14071358
0.11632374 -0.050281916 -0.78800005 15854328
0.1178247 -0.050281916 -0.78800005 15788271
-0.060788643 -0.048780948 -0.78800005 13352377
0.0037523082 -0.048780952 -0.78800005 14669272
0.0052532605 -0.048780952 -0.78800005 14537686
0.006754213 -0.048780952 -0.78800005 14472400
-0.011242932 -0.056214292 -0.78700006 13677386
-0.0097438842 -0.056214292 -0.78700006 13611593
0.092191361 -0.056214299 -0.78700006 14209491
0.11467708 -0.056214303 -0.78700006 9209201
-0.036726739 -0.054715239 -0.78700006 14274771
-0.03522769 -0.054715239 -0.78700006 14340564
-0.033728644 -0.054715239 -0.78700006 14340564
-0.032229599 -0.054715239 -0.78700006 14406357
-0.011242932 -0.054715242 -0.78700006 14600871
-0.0097438842 -0.054715242 -0.78700006 14600871
0.062210411 -0.054715246 -0.78700006 14404281
0.09369041 -0.05471525 -0.78700006 13945806
0.095189452 -0.05471525 -0.78700006 14274771
0.096688509 -0.05471525 -0.78700006 14406105
0.11467708 -0.054715253 -0.78700006 14537941
-0.033728644 -0.053216189 -0.78700006 14274514
-0.032229599 -0.053216189 -0.78700006 14274771
-0.030730551 -0.053216189 -0.78700006 14340564
-0.029231504 -0.053216189 -0.78700006 14406355
-0.027732454 -0.053216189 -0.78700006 14406355
-0.021736264 -0.053216189 -0.78700006 14801113
-0.020237217 -0.053216193 -0.78700006 14735322
-0.017239122 -0.053216193 -0.78700006 14801115
-0.015740072 -0.053216193 -0.78700006 15195873
-0.0082448358 -0.053216193 -0.78700006 14930623
-0.0067457883 -0.053216193 -0.78700006 14667451
0.0037475459 -0.053216193 -0.78700006 13217883
0.0052465932 -0.053216193 -0.78700006 12888918
0.011242785 -0.053216193 -0.78700006 12754506
0.012741832 -0.053216193 -0.78700006 12886088
0.042722791 -0.053216197 -0.78700006 13478717
0.071204692 -0.0532162 -0.78700006 14800086
0.08769422 -0.0532162 -0.78700006 14208978
0.089193262 -0.0532162 -0.78700006 14208978
0.09369041 -0.0532162 -0.78700006 14209491
0.095189452 -0.0532162 -0.78700006 14275284
0.096688509 -0.0532162 -0.78700006 14340312
0.098187551 -0.0532162 -0.78700006 14406105
0.10268469 -0.0532162 -0.78700006 14735315
0.11467708 -0.053216204 -0.78700006 14537945
-0.045721028 -0.051717144 -0.78700006 14406870
-0.044221979 -0.051717144 -0.78700006 14472663
-0.042722933 -0.051717144 -0.78700006 14406870
-0.041223884 -0.051717144 -0.78700006 14340564
-0.0052467403 -0.051717147 -0.78700006 14472400
-0.0037476928 -0.051717147 -0.78700006 14472400
0.00074945053 -0.051717147 -0.78700006 14931904
0.0022484981 -0.051717147 -0.78700006 14866111
0.044221837 -0.051717151 -0.78700006 13742143
0.096688509 -0.051717155 -0.78700006 14077140
0.098187551 -0.051717155 -0.78700006 14077140
0.099686593 -0.051717155 -0.78700006 14142674
0.10118565 -0.051717155 -0.78700006 14208467
0.10268469 -0.051717155 -0.78700006 14011599
0.11617612 -0.051717158 -0.78700006 15393263
0.12067327 -0.051717158 -0.78700006 14736101
-0.056214362 -0.050218094 -0.78700006 13418694
-0.054715313 -0.050218094 -0.78700006 15129312
-0.053216264 -0.050218094 -0.78700006 14669529
-0.051717218 -0.050218094 -0.78700006 14472150
-0.050218169 -0.050218094 -0.78700006 14537943
-0.048719119 -0.050218094 -0.78700006 14472150
-0.042722933 -0.050218094 -0.78700006 14604247
-0.041223884 -0.050218094 -0.78700006 14471893
-0.056214362 -0.048719045 -0.78700006 13616055
-0.054715313 -0.048719045 -0.78700006 14931915
-0.053216264 -0.048719045 -0.78700006 14866388
-0.051717218 -0.048719045 -0.78700006 14669009
-0.050218169 -0.048719045 -0.78700006 14602964
-0.048719119 -0.048719045 -0.78700006 14734550
-0.0067286449 -0.057566669 -0.78500003 12493580
-0.005233407 -0.057566669 -0.78500003 11573504
0.093452305 -0.057566676 -0.78500003 14406357
0.094947547 -0.057566676 -0.78500003 14603736
0.096442789 -0.057566676 -0.78500003 14669529
-0.032147691 -0.056071427 -0.78500003 14932442
-0.0082238829 -0.05607143 -0.78500003 13283132
-0.0067286449 -0.05607143 -0.78500003 13348925
0.093452305 -0.056071438 -0.78500003 14274771
0.094947547 -0.056071438 -0.78500003 14472150
0.096442789 -0.056071438 -0.78500003 14537943
0.097938024 -0.056071438 -0.78500003 14735322
-0.030652456 -0.054576185 -0.78500003 14406357
-0.029157219 -0.054576185 -0.78500003 14340564
-0.012709597 -0.054576188 -0.78500003 14667962
-0.0082238829 -0.054576188 -0.78500003 14993553
-0.0067286445 -0.054576188 -0.78500003 15059346
0.09195707 -0.054576196 -0.78500003 14209491
0.097938024 -0.054576196 -0.78500003 14340312
0.099433266 -0.054576196 -0.78500003 14471891
0.1009285 -0.054576196 -0.78500003 14669270
0.11588088 -0.0545762 -0.78500003 14406355
0.11737612 -0.0545762 -0.78500003 14340294
-0.060557216 -0.05308095 -0.78500003 14472150
-0.026166739 -0.05308095 -0.78500003 14669529
-0.024671502 -0.05308095 -0.78500003 14866908
-0.023176264 -0.05308095 -0.78500003 14735320
-0.0052334066 -0.053080954 -0.78500003 14666420
0.0067284983 -0.053080954 -0.78500003 12690505
0.0082237357 -0.053080954 -0.78500003 12229954
0.0097189741 -0.053080954 -0.78500003 12557127
0.044109456 -0.053080957 -0.78500003 13412924
0.090461828 -0.053080961 -0.78500003 14208978
0.09195707 -0.053080961 -0.78500003 14274771
0.099433266 -0.053080961 -0.78500003 14472150
0.1009285 -0.053080961 -0.78500003 14603736
0.11588088 -0.053080965 -0.78500003 14472152
0.11737612 -0.053080965 -0.78500003 14472400
0.11887135 -0.053080965 -0.78500003 14603986
0.1203666 -0.053080965 -0.78500003 14866919
-0.063547693 -0.051585712 -0.78500003 14669529
-0.062052451 -0.051585712 -0.78500003 14603736
-0.060557216 -0.051585712 -0.78500003 14735322
-0.059061978 -0.051585712 -0.78500003 14209755
-0.05756674 -0.051585712 -0.78500003 13354446
-0.056071501 -0.051585712 -0.78500003 13484744
-0.054576259 -0.051585712 -0.78500003 14603225
-0.053081024 -0.051585712 -0.78500003 14537943
-0.051585786 -0.051585712 -0.78500003 14537943
-0.047100071 -0.051585712 -0.78500003 14143698
-0.0022429302 -0.051585715 -0.78500003 14537673
-0.00074769219 -0.051585715 -0.78500003 14603466
0.045604691 -0.051585719 -0.78500003 13939774
0.047099929 -0.051585719 -0.78500003 13808188
0.11737612 -0.051585726 -0.78500003 15525615
0.11887135 -0.051585726 -0.78500003 14801892
-0.068033412 -0.050090469 -0.78500003 14668759
-0.066538177 -0.050090469 -0.78500003 15063517
-0.065042935 -0.050090469 -0.78500003 14801113
-0.059061978 -0.050090473 -0.78500003 14405848
-0.05756674 -0.050090473 -0.78500003 13155781
0.045604691 -0.050090481 -0.78500003 14006078
0.047099929 -0.050090481 -0.78500003 14006078
-0.059061978 -0.048595235 -0.78500003 13286075
-0.05756674 -0.048595235 -0.78500003 13549247
0.099179931 -0.060402866 -0.78300005 3756111
0.10067136 -0.060402866 -0.78300005 4808799
-0.011185789 -0.058911432 -0.78300005 13017375
-0.0096943602 -0.058911432 -0.78300005 13280547
-0.0082029318 -0.058911432 -0.78300005 13479491
-0.0067115026 -0.058911432 -0.78300005 13874249
-0.0052200737 -0.058911432 -0.78300005 13612860
0.096197069 -0.058911439 -0.78300005 13420750
0.097688504 -0.058911439 -0.78300005 9078412
0.099179931 -0.058911439 -0.78300005 5132945
0.10067136 -0.058911439 -0.78300005 4672394
-0.011185788 -0.057420004 -0.78300005 13478948
-0.0096943593 -0.057420004 -0.78300005 12689432
-0.0082029309 -0.057420004 -0.78300005 12427787
-0.0037286452 -0.057420004 -0.78300005 11968256
0.097688504 -0.057420012 -0.78300005 14274771
0.099179931 -0.057420012 -0.78300005 13092289
0.10067136 -0.057420012 -0.78300005 9210502
0.11111136 -0.057420015 -0.78300005 6774603
0.11260279 -0.057420015 -0.78300005 5327157
0.11409422 -0.057420015 -0.78300005 4541974
-0.036540076 -0.055928569 -0.78300005 14603477
-0.035048645 -0.055928569 -0.78300005 14735063
-0.033557214 -0.055928569 -0.78300005 15129821
-0.012677216 -0.055928573 -0.78300005 13941083
-0.0052200733 -0.055928573 -0.78300005 12360793
0.045488503 -0.055928577 -0.78300005 14599581
0.099179931 -0.05592858 -0.78300005 14275266
0.10067136 -0.05592858 -0.78300005 11906718
0.10514565 -0.05592858 -0.78300005 11839142
0.11111136 -0.055928584 -0.78300005 9471406
0.11260279 -0.055928584 -0.78300005 8879269
-0.027591506 -0.054437142 -0.78300005 14406357
-0.0052200733 -0.054437146 -0.78300005 14729100
0.0052199271 -0.054437146 -0.78300005 12426803
0.0067113559 -0.054437146 -0.78300005 12425261
0.0082027856 -0.054437146 -0.78300005 12293675
0.009694214 -0.054437146 -0.78300005 11636224
0.045488503 -0.054437149 -0.78300005 13412947
0.087248504 -0.054437153 -0.78300005 14208978
0.088739932 -0.054437153 -0.78300005 14274771
0.090231359 -0.054437153 -0.78300005 14275284
-0.063385792 -0.052945711 -0.78300005 14406357
-0.061894361 -0.052945711 -0.78300005 14406357
-0.058911502 -0.052945711 -0.78300005 14406355
-0.057420075 -0.052945711 -0.78300005 14537941
-0.055928644 -0.052945711 -0.78300005 14472663
-0.054437216 -0.052945711 -0.78300005 14406870
-0.052945785 -0.052945711 -0.78300005 14472150
-0.051454362 -0.052945711 -0.78300005 14603736
-0.04996293 -0.052945711 -0.78300005 14603995
-0.048471503 -0.052945711 -0.78300005 14603995
-0.0037286447 -0.052945714 -0.78300005 14271662
0.00074564124 -0.052945714 -0.78300005 13810522
0.0022370699 -0.052945714 -0.78300005 13481557
0.045488503 -0.052945718 -0.78300005 13413412
-0.067860082 -0.051454283 -0.78300005 14274771
-0.066368647 -0.051454283 -0.78300005 14603736
-0.064877219 -0.051454283 -0.78300005 14669529
-0.04996293 -0.051454287 -0.78300005 14538202
-0.048471503 -0.051454287 -0.78300005 14472409
-0.064711504 -0.058760945 -0.78100002 14472150
-0.0037191212 -0.058760952 -0.78100002 13941825
-0.0022315017 -0.058760952 -0.78100002 14073411
-0.00074388291 -0.058760952 -0.78100002 14073411
0.00074373611 -0.058760952 -0.78100002 13941069
-0.0022315017 -0.057273332 -0.78100002 12035341
-0.00074388279 -0.057273332 -0.78100002 11903755
0.0037189745 -0.057273332 -0.78100002 13413164
0.10487707 -0.057273339 -0.78100002 8813416
0.1152904 -0.057273343 -0.78100002 4936732
-0.003719121 -0.055785716 -0.78100002 11900242
0.0052065933 -0.055785716 -0.78100002 13018656
0.023058021 -0.055785719 -0.78100002 14069570
0.02454564 -0.055785719 -0.78100002 13742129
0.10190183 -0.055785723 -0.78100002 11248293
0.10338946 -0.055785723 -0.78100002 11445672
0.1152904 -0.055785727 -0.78100002 9472373
0.11677802 -0.055785727 -0.78100002 10259645
-0.066199124 -0.054298088 -0.78100002 14472150
-0.064711504 -0.054298088 -0.78100002 14472152
-0.063223884 -0.054298092 -0.78100002 14472152
-0.051322926 -0.054298092 -0.78100002 14603736
-0.026033409 -0.054298092 -0.78100002 14603986
-0.024545789 -0.054298092 -0.78100002 14538193
-0.02305817 -0.054298092 -0.78100002 14406087
-0.02157055 -0.054298092 -0.78100002 14537673
-0.017107695 -0.054298095 -0.78100002 14602948
-0.0037191208 -0.054298095 -0.78100002 14400135
0.042397074 -0.054298099 -0.78100002 13215568
0.043884695 -0.054298099 -0.78100002 13412947
0.10190183 -0.054298103 -0.78100002 14800597
0.10338946 -0.054298103 -0.78100002 14866390
0.11826564 -0.054298107 -0.78100002 14274501
-0.066199124 -0.052810468 -0.78100002 14406357
-0.064711504 -0.052810468 -0.78100002 14472150
-0.042397216 -0.052810472 -0.78100002 14275032
-0.040909596 -0.052810472 -0.78100002 14340564
-0.0022315013 -0.052810475 -0.78100002 14270357
-0.00074388238 -0.052810475 -0.78100002 14138771
0.046859931 -0.052810479 -0.78100002 13413412
0.073637068 -0.052810483 -0.78100002 13944273
-0.05720007 -0.060171429 -0.78000003 14537675
-0.063142933 -0.058685713 -0.78000003 14603736
-0.058685787 -0.058685713 -0.78000003 14669529
-0.05720007 -0.058685713 -0.78000003 14735322
-0.055714361 -0.058685713 -0.78000003 14669529
0.10177135 -0.058685724 -0.78000003 5133128
-0.064628646 -0.057199992 -0.78000003 14340055
-0.063142933 -0.057199996 -0.78000003 14405848
-0.061657216 -0.057199996 -0.78000003 14471641
-0.060171504 -0.057199996 -0.78000003 14537434
-0.058685787 -0.057199996 -0.78000003 14472150
-0.05720007 -0.057199996 -0.78000003 14537943
-0.030457219 -0.057199996 -0.78000003 14799281
0.000742784 -0.0572 -0.78000003 11506944
0.0022284985 -0.0572 -0.78000003 12362240
0.024514213 -0.057200003 -0.78000003 13282103
0.061657075 -0.057200003 -0.78000003 13353928
0.063142784 -0.057200003 -0.78000003 13025217
0.064628497 -0.057200007 -0.78000003 13025217
0.10177135 -0.057200007 -0.78000003 7565664
0.10325707 -0.057200007 -0.78000003 7960422
0.11662851 -0.057200011 -0.78000003 8485427
0.11811421 -0.057200011 -0.78000003 13090937
-0.064628646 -0.055714283 -0.78000003 14340312
-0.063142933 -0.055714287 -0.78000003 14406105
-0.061657216 -0.055714287 -0.78000003 14471900
-0.060171504 -0.055714287 -0.78000003 14471900
-0.058685787 -0.055714287 -0.78000003 14406359
-0.05720007 -0.055714287 -0.78000003 14537945
-0.030457219 -0.055714287 -0.78000003 14866649
-0.026000075 -0.055714287 -0.78000003 14799291
-0.017085789 -0.055714291 -0.78000003 13875833
-0.015600073 -0.055714291 -0.78000003 13810040
-0.014114358 -0.055714291 -0.78000003 14006876
-0.0022286447 -0.055714291 -0.78000003 12361258
-0.00074293022 -0.055714291 -0.78000003 13150774
0.00074278412 -0.055714291 -0.78000003 12557878
0.0022284985 -0.055714291 -0.78000003 12360499
0.0037142127 -0.055714291 -0.78000003 12821277
0.061657075 -0.055714294 -0.78000003 13813450
0.063142784 -0.055714294 -0.78000003 13814213
0.086914212 -0.055714298 -0.78000003 14274519
0.11811421 -0.055714302 -0.78000003 13615088
-0.061657216 -0.05422857 -0.78000003 14406105
-0.060171504 -0.05422857 -0.78000003 14406105
-0.058685787 -0.05422857 -0.78000003 14143185
-0.05720007 -0.05422857 -0.78000003 14603736
-0.055714361 -0.05422857 -0.78000003 14603995
-0.054228645 -0.05422857 -0.78000003 14472409
-0.052742928 -0.05422857 -0.78000003 14537943
-0.049771503 -0.05422857 -0.78000003 14538202
-0.020057218 -0.054228574 -0.78000003 14603470
-0.018571503 -0.054228574 -0.78000003 14471884
-0.015600073 -0.054228574 -0.78000003 14602948
-0.014114358 -0.054228574 -0.78000003 14667962
-0.0022286444 -0.054228574 -0.78000003 14333543
-0.00074293005 -0.054228574 -0.78000003 14333543
0.00074278429 -0.054228574 -0.78000003 14333262
0.0022284987 -0.054228574 -0.78000003 14135883
0.0037142129 -0.054228574 -0.78000003 13479491
0.037885647 -0.054228578 -0.78000003 13676350
0.039371356 -0.054228578 -0.78000003 13413426
0.040857073 -0.054228578 -0.78000003 13610805
0.05571422 -0.054228578 -0.78000003 14336150
0.057199929 -0.054228578 -0.78000003 14140085
0.073542781 -0.054228581 -0.78000003 13485262
0.11959992 -0.054228585 -0.78000003 14208978
0.12108564 -0.054228585 -0.78000003 15195873
-0.067600079 -0.05274285 -0.78000003 14406357
-0.046800073 -0.052742854 -0.78000003 14275032
-0.045314357 -0.052742854 -0.78000003 14472411
-0.043828644 -0.052742854 -0.78000003 14406618
0.048285645 -0.052742861 -0.78000003 13478203
0.049771361 -0.052742861 -0.78000003 13675582
0.051257074 -0.052742861 -0.78000003 13479230
0.12108564 -0.052742869 -0.78000003 15656435
-0.069085792 -0.051257137 -0.78000003 14668757
-0.070571505 -0.049771424 -0.78000003 14799825
-0.069085792 -0.049771424 -0.78000003 14865618
-0.062981032 -0.060017142 -0.77800006 14538202
-0.061499123 -0.060017142 -0.77800006 14472150
-0.060017217 -0.060017142 -0.77800006 14537943
-0.058535315 -0.060017142 -0.77800006 14603468
-0.065944843 -0.058535237 -0.77800006 14472152
-0.061499123 -0.058535241 -0.77800006 14537686
-0.060017217 -0.058535241 -0.77800006 14669272
-0.054089595 -0.058535241 -0.77800006 14603736
-0.052607693 -0.058535241 -0.77800006 14801115
-0.051125787 -0.058535241 -0.77800006 14932701
0.11484756 -0.058535255 -0.77800006 6248786
0.11632946 -0.058535255 -0.77800006 9010032
-0.065944843 -0.057053331 -0.77800006 14340564
-0.055571504 -0.057053335 -0.77800006 14537691
-0.054089595 -0.057053335 -0.77800006 14537691
-0.052607693 -0.057053335 -0.77800006 14406100
-0.051125787 -0.057053335 -0.77800006 14669272
-0.049643882 -0.057053335 -0.77800006 14537943
-0.012596264 -0.057053339 -0.77800006 14004058
0.11929327 -0.05705335 -0.77800006 13222072
-0.065944843 -0.055571426 -0.77800006 14340566
-0.055571504 -0.055571429 -0.77800006 14603484
-0.054089595 -0.055571429 -0.77800006 14669277
-0.052607693 -0.055571429 -0.77800006 14537943
-0.051125787 -0.055571429 -0.77800006 14603736
-0.049643882 -0.055571429 -0.77800006 14537943
-0.04816198 -0.055571429 -0.77800006 14340564
-0.046680074 -0.055571429 -0.77800006 14406357
-0.040752456 -0.055571429 -0.77800006 14537943
-0.039270546 -0.055571429 -0.77800006 14866908
-0.037788644 -0.055571429 -0.77800006 14669270
-0.02889722 -0.055571429 -0.77800006 14931670
-0.027415313 -0.055571429 -0.77800006 14602705
-0.024451504 -0.055571429 -0.77800006 14470326
-0.0229696 -0.055571429 -0.77800006 14666925
-0.021487696 -0.055571429 -0.77800006 14666925
-0.020005791 -0.055571433 -0.77800006 14534829
-0.018523885 -0.055571433 -0.77800006 14008485
0.040752314 -0.055571437 -0.77800006 14730060
0.04223422 -0.055571437 -0.77800006 14532752
0.043716121 -0.055571437 -0.77800006 14598545
0.060017075 -0.055571437 -0.77800006 13813450
0.088173263 -0.055571441 -0.77800006 14603484
0.089655168 -0.055571441 -0.77800006 14209491
0.11929327 -0.055571444 -0.77800006 13485255
0.12077517 -0.055571444 -0.77800006 14143185
-0.068908647 -0.054089516 -0.77800006 14537943
-0.067426741 -0.054089516 -0.77800006 14472150
-0.04816198 -0.05408952 -0.77800006 14472409
-0.046680074 -0.05408952 -0.77800006 14275284
-0.045198169 -0.05408952 -0.77800006 14406870
-0.043716263 -0.05408952 -0.77800006 14340825
-0.042234361 -0.05408952 -0.77800006 14275032
-0.040752456 -0.05408952 -0.77800006 14274771
-0.039270546 -0.05408952 -0.77800006 14603736
-0.037788644 -0.05408952 -0.77800006 14406357
0.03334279 -0.054089528 -0.77800006 13938752
0.034824692 -0.054089528 -0.77800006 13872959
0.036306597 -0.054089528 -0.77800006 13742143
0.046679933 -0.054089528 -0.77800006 13807705
0.048161838 -0.054089528 -0.77800006 14004337
0.04964374 -0.054089528 -0.77800006 14333302
0.07483612 -0.054089531 -0.77800006 13616584
0.12225708 -0.054089535 -0.77800006 15131618
-0.068908647 -0.052607615 -0.77800006 14603477
0.07483612 -0.052607629 -0.77800006 13878984
0.082245648 -0.052607629 -0.77800006 14274771
0.083727553 -0.052607629 -0.77800006 14208978
0.085209459 -0.052607629 -0.77800006 14340564
0.12225708 -0.052607633 -0.77800006 15393763
